# .PCD v0.7 - Point Cloud Data file format
VERSION 0.7
FIELDS x y z rgb
SIZE 4 4 4 4
TYPE F F F F
COUNT 1 1 1 1
WIDTH 1020
HEIGHT 1
VIEWPOINT 0 0 0 1 0 0 0
POINTS 1020
DATA ascii
0.73831493 -1.9306052 0.84808397 2.3509886e-38
0.6758393 -1.9252423 0.84441888 1.6410822e-38
0.71858555 -1.9265574 0.84974545 2.3509886e-38
0.72446871 -1.9276977 0.84927744 2.3509886e-38
0.73239541 -1.9294097 0.8485747 2.3509886e-38
0.74420071 -1.9204967 0.84833407 2.3509886e-38
0.67992663 -1.9183284 0.84922862 1.6410822e-38
0.68227702 -1.9143555 0.84541321 1.6410822e-38
0.72637171 -1.9165288 0.849971 2.3509886e-38
0.734276 -1.9182605 0.84925669 2.3509886e-38
0.75216281 -1.9112996 0.84824121 2.3509886e-38
0.68717611 -1.9060758 0.84496689 1.6410822e-38
0.6902951 -1.900804 0.84289801 1.6410822e-38
0.73630548 -1.9076622 0.84974945 2.3509886e-38
0.74421626 -1.9094532 0.84900689 2.3509886e-38
0.75416452 -1.9009184 0.84867311 2.3509886e-38
0.69363934 -1.8951494 0.84527272 1.6410822e-38
0.74428678 -1.8986599 0.84961414 2.3509886e-38
0.75622809 -1.8908383 0.84901494 2.3509886e-38
0.76429868 -1.8930905 0.84807169 2.3509886e-38
0.69812042 -1.8875763 0.84574908 1.6410822e-38
0.70150161 -1.8818629 0.84410501 1.6410822e-38
0.75440764 -1.8836619 0.84945744 2.3509886e-38
0.76608485 -1.8819546 0.84760445 2.3417691e-38
0.7712093 -1.886338 0.84704328 1.9453278e-38
0.70499927 -1.8759533 0.84628898 1.6410822e-38
0.75669003 -1.8707963 0.84975421 2.1389386e-38
0.76548034 -1.8793266 0.84614563 2.341769e-38
0.75536525 -1.8658109 0.84803551 2.1204996e-38
0.76482981 -1.8673104 0.84739798 2.341769e-38
0.77266324 -1.8648083 0.84846175 2.3509886e-38
0.74646115 -1.8551722 0.84874606 2.3325494e-38
0.7523461 -1.8566475 0.84811574 2.341769e-38
0.76509488 -1.8533368 0.84953022 2.3509886e-38
0.7749458 -1.8558445 0.84845877 2.3509886e-38
0.73935276 -1.8445187 0.84950078 2.3509886e-38
0.74504316 -1.8455822 0.84904414 2.3509886e-38
0.7654947 -1.8441149 0.84967411 2.3509886e-38
0.77527732 -1.8465338 0.84863567 2.3509886e-38
0.73616153 -1.8348613 0.84986377 2.3509886e-38
0.76592004 -1.835039 0.84978706 2.3509886e-38
0.77568167 -1.8374804 0.8487336 2.3509886e-38
0.78453499 -1.831977 0.84732366 2.3509886e-38
0.7664386 -1.8262684 0.84979892 2.3509886e-38
0.77502555 -1.8254652 0.84889174 2.3509886e-38
0.78189421 -1.8247021 0.84796411 2.3509886e-38
0.76707572 -1.8178585 0.84968388 2.3509886e-38
0.77450305 -1.8138641 0.8489213 2.3509886e-38
0.78109694 -1.8125447 0.84824193 2.3509886e-38
0.76617068 -1.8050606 0.84964943 2.3509886e-38
0.77405381 -1.8025304 0.84888363 2.3509886e-38
0.78175884 -1.8044294 0.84804821 2.3509886e-38
0.76530415 -1.7924736 0.84958017 2.3509886e-38
0.77474862 -1.7945141 0.84867805 2.3509886e-38
0.78279847 -1.7972519 0.84746742 2.3509886e-38
0.76418334 -1.7842091 0.84951621 2.3509886e-38
0.77549082 -1.786676 0.84842032 2.3509886e-38
0.78107661 -1.7821913 0.8466922 2.3509886e-38
0.75754863 -1.7750183 0.8498944 2.3509886e-38
0.76499367 -1.7765268 0.84922099 2.3509886e-38
0.7749151 -1.7750778 0.84801525 2.3509886e-38
-0.73308128 -1.7605054 0.84530962 3.8722151e-39
-0.7263239 -1.7605044 0.84531015 4.3328331e-39
-0.71618801 -1.7605032 0.84531069 4.60942e-39
-0.70575666 -1.7646044 0.84530956 4.4253874e-39
-0.69560212 -1.7646047 0.84530932 4.4253874e-39
-0.68578243 -1.7605038 0.84531039 4.7016156e-39
-0.67564774 -1.7605052 0.84530973 4.4250287e-39
-0.66889149 -1.7605067 0.84530902 4.0566063e-39
0.75751376 -1.7648531 0.84951311 2.3509886e-38
0.76544303 -1.7658691 0.84881055 2.3509886e-38
0.77257454 -1.7634029 0.84769857 2.3509886e-38
-0.74198329 -1.7523735 0.84530824 4.1484418e-39
-0.73356777 -1.7523699 0.84530991 4.7016156e-39
-0.72269338 -1.7521124 0.84450483 4.7934483e-39
-0.714176 -1.7534193 0.84298563 1.382933e-39
-0.7047174 -1.7549418 0.84229112 1.1985418e-39
-0.6945591 -1.7548395 0.84233761 1.1063476e-39
-0.6844418 -1.7530495 0.84278524 1.1989019e-39
-0.6763528 -1.7523688 0.84531039 5.9919901e-39
-0.66625732 -1.7523718 0.84530908 4.7016142e-39
-0.65784502 -1.7523756 0.84530723 4.1488005e-39
0.74756169 -1.7507037 0.84974885 2.3509886e-38
0.75434399 -1.7555774 0.84938753 2.3509886e-38
0.7654162 -1.7527294 0.84791148 2.3509886e-38
0.7721588 -1.7569919 0.84690094 2.3509886e-38
-0.75082046 -1.7443093 0.84530413 4.240636e-39
-0.74411297 -1.7443051 0.8453061 4.7938098e-39
-0.73429567 -1.7440456 0.84358531 2.8580617e-39
-0.72669214 -1.7481198 0.84264022 1.382933e-39
-0.67325616 -1.7481326 0.84232664 1.0141519e-39
-0.66444719 -1.7439814 0.84398282 2.7658675e-39
-0.65358919 -1.7443089 0.84530425 4.60942e-39
-0.64688534 -1.7443135 0.84530216 3.8718549e-39
0.50879431 -1.7423078 0.8498888 2.3509886e-38
0.74491954 -1.7429059 0.84961665 2.3509886e-38
0.75396758 -1.7444812 0.84889978 2.3509886e-38
0.76474911 -1.7456179 0.84715796 2.341769e-38
-0.75457859 -1.7363015 0.8453021 4.3328317e-39
-0.74428374 -1.7349018 0.84411311 2.8584219e-39
-0.73924005 -1.7385217 0.84244478 1.4754888e-39
-0.65535432 -1.7362591 0.8444041 4.0566063e-39
-0.64435571 -1.7363046 0.84530067 4.1484418e-39
0.50729972 -1.7355129 0.84932619 2.3509886e-38
0.51369017 -1.7345544 0.84976435 2.3509886e-38
0.52947968 -1.7300476 0.84817523 1.6410822e-38
0.55190873 -1.7341812 0.84993505 1.9914256e-38
0.73697859 -1.7344214 0.84982526 2.3509886e-38
0.74415445 -1.7356085 0.84928244 2.3509886e-38
0.75529987 -1.7359146 0.84822941 2.3509886e-38
0.76422721 -1.7379346 0.84455127 2.2495734e-38
-0.76298565 -1.7230854 0.84530354 4.1484418e-39
-0.75448453 -1.7241023 0.84465855 4.2409976e-39
-0.74823606 -1.72697 0.84319705 2.3052509e-39
-0.65179724 -1.7274823 0.84387445 3.5034325e-39
-0.64483035 -1.7251911 0.84530294 4.79417e-39
-0.63670397 -1.7225559 0.84524405 4.0562462e-39
0.18977806 -1.7241368 0.84359592 4.144804e-39
0.19770667 -1.7221496 0.84816408 7.9211871e-39
0.21903938 -1.7203068 0.8490147 1.2250381e-38
0.22606574 -1.7227949 0.84604162 1.2434411e-38
0.50725567 -1.7271981 0.84766042 1.9914256e-38
0.51536864 -1.7265319 0.84796733 2.1112799e-38
0.52335364 -1.7275734 0.84809726 1.8715713e-38
0.53585303 -1.7291275 0.84859782 2.3509886e-38
0.54387641 -1.7281891 0.84902906 2.3509886e-38
0.72753304 -1.7262206 0.84993333 2.3509886e-38
0.73573637 -1.7245853 0.84922999 2.3509886e-38
0.74496853 -1.7259824 0.84858721 2.3509886e-38
0.75481576 -1.7260092 0.84577513 2.3141103e-38
-0.76402193 -1.7126142 0.84530711 4.2406374e-39
-0.75476933 -1.7144182 0.84373838 2.8584233e-39
-0.64182484 -1.7126131 0.84530759 4.6097801e-39
-0.633753 -1.7147915 0.84338099 3.9640505e-39
0.18921402 -1.7161283 0.84184885 2.3027089e-39
0.19492669 -1.715511 0.84614313 6.8159297e-39
0.20464186 -1.7149187 0.84932691 9.8554764e-39
0.21453312 -1.7147543 0.84940261 1.1697572e-38
0.22535744 -1.7154157 0.84582269 1.2526605e-38
0.4999727 -1.7136242 0.84119469 1.6410822e-38
0.50447536 -1.7149073 0.84527963 2.0006452e-38
0.51552075 -1.7134582 0.84854823 2.3509886e-38
0.52580446 -1.7155079 0.84941739 2.3509886e-38
0.53458923 -1.7110654 0.84965801 2.3509886e-38
0.71589661 -1.7110759 0.84965307 2.3509886e-38
0.72576553 -1.7157263 0.84931636 2.3509886e-38
0.73413134 -1.7157116 0.84871715 2.3509886e-38
0.74509686 -1.7140025 0.84587389 2.3048907e-38
0.75282174 -1.71854 0.84254599 2.1204995e-38
-0.76602572 -1.7048354 0.84530908 4.1484418e-39
-0.75593114 -1.7044793 0.84305859 2.5818378e-39
-0.64264035 -1.7048376 0.84530807 4.5179446e-39
-0.63441503 -1.7048386 0.84530759 4.1488019e-39
0.1948107 -1.705526 0.84498674 5.8947035e-39
0.20359054 -1.7042096 0.84832013 9.7632822e-39
0.21435398 -1.7052988 0.84871578 1.1789766e-38
0.22435641 -1.7048473 0.84530497 1.2342575e-38
0.50691509 -1.7076428 0.84326822 1.7424974e-38
0.51398712 -1.7040874 0.84606344 2.0190843e-38
0.52513343 -1.7054892 0.84862697 2.3509886e-38
0.53622675 -1.7041487 0.84925157 2.3509886e-38
0.54572886 -1.7030271 0.84977418 2.3509886e-38
0.6999706 -1.7028162 0.84987241 2.3509886e-38
0.70508027 -1.7032635 0.84966409 2.3509886e-38
0.71366835 -1.7041665 0.84924322 2.3509886e-38
0.72531474 -1.7041233 0.8483603 2.3509886e-38
0.73526639 -1.7049454 0.84646773 2.3233299e-38
0.74213427 -1.7068186 0.84256458 2.1389386e-38
-0.76637745 -1.6971189 0.84530896 4.1488005e-39
-0.75685114 -1.6949363 0.84513396 3.6881839e-39
-0.64181203 -1.6971225 0.84530729 4.6097801e-39
-0.6334995 -1.6950601 0.84411126 3.5030724e-39
-0.62975121 -1.698997 0.84261447 2.5814762e-39
0.19340067 -1.6954578 0.84319943 4.6054164e-39
0.20515634 -1.6939265 0.84801537 9.7632822e-39
0.21509337 -1.6952438 0.84799838 1.1973797e-38
0.22513321 -1.6954675 0.84427941 1.2526605e-38
0.51654053 -1.6979635 0.84273928 1.7240583e-38
0.52430415 -1.6946454 0.84516138 1.9637669e-38
0.53481346 -1.6941385 0.84825951 2.341769e-38
0.54425299 -1.694114 0.84888923 2.3509886e-38
0.55374414 -1.6957717 0.84955215 2.3509886e-38
0.56333262 -1.6950775 0.84987712 2.3509886e-38
0.68596095 -1.6950018 0.84991252 2.3509886e-38
0.69445854 -1.6957861 0.84954542 2.3509886e-38
0.70583487 -1.6941967 0.84885037 2.3509886e-38
0.71474105 -1.6951487 0.84840393 2.3509886e-38
0.72428095 -1.6950885 0.84626585 2.3048907e-38
0.73237228 -1.6978842 0.84313935 2.1665973e-38
-0.76364201 -1.6856618 0.84530693 4.240636e-39
-0.75553083 -1.6853518 0.84455174 3.9647708e-39
-0.64376026 -1.6849072 0.84530431 4.7019757e-39
-0.63468599 -1.6860124 0.8443678 3.5034325e-39
0.19635622 -1.6846796 0.84457117 6.4475116e-39
0.2059446 -1.6843027 0.8477456 9.9476721e-39
0.21578886 -1.6849302 0.84744906 1.206635e-38
0.22361235 -1.6857166 0.84467942 1.261844e-38
0.52879888 -1.6885223 0.84334725 1.7424974e-38
0.53538966 -1.6847235 0.84394813 1.834693e-38
0.54455942 -1.6841129 0.84723872 2.2034756e-38
0.55463088 -1.6860919 0.84870118 2.3509886e-38
0.56495124 -1.6848296 0.84903961 2.3509886e-38
0.57530481 -1.6846188 0.84939575 2.3509886e-38
0.58439797 -1.6834619 0.84958202 2.3509886e-38
0.59526825 -1.680439 0.84957129 2.3509886e-38
0.60491091 -1.6801554 0.84970522 2.3509886e-38
0.61461014 -1.6800369 0.84976125 2.3509886e-38
0.62109286 -1.6800052 0.84977627 2.3509886e-38
0.64546978 -1.6800666 0.8497473 2.3509886e-38
0.65371776 -1.6804013 0.84958905 2.3509886e-38
0.66508186 -1.6834885 0.8495695 2.3509886e-38
0.67456919 -1.6845978 0.84940571 2.3509886e-38
0.68460512 -1.6852684 0.84908956 2.3509886e-38
0.69471639 -1.6861029 0.84869629 2.3509886e-38
0.70419133 -1.6846125 0.84760171 2.3325494e-38
0.71437746 -1.685183 0.84418124 2.194256e-38
0.72334325 -1.6897573 0.84155798 2.0375234e-38
-0.7635873 -1.6748074 0.8438735 3.595268e-39
-0.75445098 -1.6743118 0.84530753 4.79417e-39
-0.65070957 -1.6743155 0.84530574 5.0707568e-39
-0.64422518 -1.6743145 0.84530622 4.7938112e-39
-0.63511789 -1.6750765 0.84314793 2.3048893e-39
0.19547969 -1.6738704 0.84372503 5.7103151e-39
0.20441027 -1.6759155 0.84723485 9.8554764e-39
0.21577065 -1.676013 0.84718877 1.1974156e-38
0.22319168 -1.6758289 0.84458399 1.261844e-38
0.54636526 -1.6777091 0.84328771 1.7885952e-38
0.55540466 -1.6746241 0.84515971 1.9637669e-38
0.56407303 -1.6732806 0.84682477 2.1758169e-38
0.57343525 -1.6739744 0.84815705 2.3233299e-38
0.5840686 -1.674674 0.84871846 2.3509886e-38
0.59364218 -1.6742611 0.84891444 2.3509886e-38
0.6048553 -1.6739202 0.84907645 2.3509886e-38
0.61611772 -1.6737257 0.8491686 2.3509886e-38
0.62587512 -1.676214 0.84942293 2.3509886e-38
0.63480455 -1.676844 0.84948272 2.3509886e-38
0.64412707 -1.6754006 0.8492707 2.3509886e-38
0.65515912 -1.6742101 0.8489387 2.3509886e-38
0.6650573 -1.6746703 0.84872025 2.3509886e-38
0.67497581 -1.6751674 0.84848422 2.3509886e-38
0.68439364 -1.6736451 0.84741861 2.341769e-38
0.69499421 -1.6749995 0.8449809 2.194256e-38
0.70361894 -1.6781719 0.84346664 2.0928408e-38
-0.75484061 -1.666821 0.84530687 4.5172243e-39
-0.74676347 -1.6668172 0.84530866 5.1629511e-39
-0.65309173 -1.6668197 0.84530747 5.1629511e-39
-0.64341134 -1.6651291 0.84397393 3.3190413e-39
-0.63832098 -1.6678529 0.84242362 1.751717e-39
0.19554253 -1.6649903 0.84350318 4.6976107e-39
0.2049619 -1.6658061 0.84722501 9.9476721e-39
0.21329543 -1.6653351 0.84745055 1.1789767e-38
0.22389731 -1.666158 0.8438369 1.2710635e-38
0.56607831 -1.6681081 0.84264314 1.7332778e-38
0.57594818 -1.66678 0.84532779 2.0098647e-38
0.58504766 -1.6643124 0.84472448 1.9914256e-38
0.59457725 -1.6634148 0.84596807 2.1020604e-38
0.604963 -1.6647354 0.8478384 2.3233299e-38
0.61529791 -1.6647667 0.84807867 2.3509886e-38
0.6249482 -1.6647048 0.84810811 2.3509886e-38
0.6346603 -1.6648073 0.84805912 2.3509886e-38
0.64499485 -1.6643999 0.84748983 2.3048907e-38
0.65542626 -1.6641446 0.84626764 2.2126951e-38
0.66581005 -1.6645499 0.84461004 2.0836212e-38
0.67586327 -1.6670474 0.84475195 2.1389386e-38
0.68533313 -1.6688792 0.84252894 1.9453278e-38
-0.75387526 -1.6582927 0.84464425 3.3186811e-39
-0.74632853 -1.6550684 0.84484482 4.1484418e-39
-0.73705894 -1.6538405 0.84530938 5.0703967e-39
-0.72995442 -1.6519947 0.8453095 5.623209e-39
-0.67223597 -1.6519965 0.84530854 5.8997944e-39
-0.66484022 -1.653842 0.84530878 5.1629511e-39
-0.65502703 -1.6550845 0.84483707 4.3328331e-39
-0.64635253 -1.6566541 0.84394962 2.6736719e-39
0.19612102 -1.6531236 0.84387392 6.1712876e-39
0.20501594 -1.655645 0.84710634 9.8554778e-39
0.21631505 -1.6561109 0.84688216 1.2158185e-38
0.22452259 -1.6559768 0.84338391 1.2618799e-38
0.59544742 -1.6594821 0.84168863 1.6779605e-38
0.6053229 -1.6588219 0.84353834 1.8715713e-38
0.61563009 -1.6582012 0.84409302 1.9545474e-38
0.62521309 -1.6580154 0.84418267 2.0006452e-38
0.63496214 -1.658271 0.84405923 1.9729865e-38
0.64424419 -1.6588211 0.84343672 1.9453278e-38
0.6534034 -1.6593963 0.84173024 1.8439126e-38
-0.74277705 -1.6454743 0.84373087 2.0283039e-39
-0.73533708 -1.6433208 0.843835 3.0424544e-39
-0.72404009 -1.6446697 0.84530705 5.2547866e-39
-0.71445459 -1.6446686 0.84530753 6.6366378e-39
-0.70646465 -1.6446636 0.84531003 8.203239e-39
-0.69368464 -1.6446636 0.84530997 8.203239e-39
-0.68569946 -1.6446692 0.84530735 6.6366378e-39
-0.67611521 -1.6446708 0.84530646 5.3466221e-39
-0.66419411 -1.6434265 0.84413838 3.2268456e-39
-0.65608639 -1.6456519 0.84305447 1.4751301e-39
0.19611816 -1.643813 0.84395003 6.3553173e-39
0.20502415 -1.6451416 0.84720868 9.9476721e-39
0.21593428 -1.6455545 0.84700882 1.2065991e-38
0.2239397 -1.6451054 0.84391451 1.261844e-38
-0.73283219 -1.6387153 0.84348011 1.1063476e-39
-0.72430223 -1.6358833 0.8436861 2.3970864e-39
-0.71508145 -1.6338005 0.84352791 2.0283039e-39
-0.70566946 -1.6331153 0.84430683 2.6736733e-39
-0.6950267 -1.6325783 0.84412783 2.5814762e-39
-0.68540078 -1.6337851 0.8435353 2.1204995e-39
-0.67544883 -1.6357642 0.84374428 2.3048907e-39
-0.66664022 -1.6389424 0.84277803 1.2907388e-39
0.19533475 -1.6343651 0.8432501 4.6054164e-39
0.20555662 -1.6352556 0.84723514 9.8554778e-39
0.21347395 -1.6350288 0.84734571 1.1881603e-38
0.22481084 -1.6347849 0.84304523 1.2618799e-38
-0.70009279 -1.6296239 0.84204209 6.4537081e-40
0.19551831 -1.6243621 0.84346014 5.25006e-39
0.20311584 -1.6255652 0.84668505 9.4870583e-39
0.21490487 -1.6249712 0.84697628 1.2065991e-38
0.22299135 -1.6252581 0.84419513 1.2526605e-38
0.19677033 -1.6149172 0.84402525 6.9077652e-39
0.20613523 -1.6157302 0.84713501 1.0039866e-38
0.21492469 -1.6153762 0.84695864 1.2065991e-38
0.22359835 -1.6153922 0.84378994 1.2618799e-38
0.35986519 -1.611885 0.84552777 2.3042111e-39
0.36001986 -1.6103389 0.84103423 2.488601e-39
0.19601846 -1.6059395 0.8432315 5.986539e-39
0.20433119 -1.604404 0.8466208 9.8554764e-39
0.21462691 -1.6057619 0.84681755 1.1881961e-38
0.22205615 -1.6057113 0.84451336 1.2618799e-38
0.36146021 -1.6025448 0.84492397 2.3960452e-39
0.19575605 -1.5956333 0.84280193 4.6054164e-39
0.20487776 -1.5950996 0.84655666 9.671088e-39
0.21451321 -1.5953109 0.84655058 1.1974156e-38
0.22419673 -1.5951079 0.842834 1.2618799e-38
0.36467242 -1.5936323 0.84415573 2.1194597e-39
0.4625895 -1.5906439 0.84043324 4.2407033e-39
0.19526227 -1.5849587 0.8421523 5.2497013e-39
0.20380326 -1.5843211 0.84594846 9.2108329e-39
0.21651846 -1.5849272 0.84593177 1.2158185e-38
0.22415698 -1.584426 0.84242296 1.2526605e-38
0.36806574 -1.5871943 0.84565383 2.6733482e-39
0.37189785 -1.5821069 0.8447513 1.7513975e-39
0.45713106 -1.5823854 0.84460872 3.5953311e-39
0.46120778 -1.5880437 0.84696245 3.9633961e-39
0.19700392 -1.5748335 0.84290266 5.8947035e-39
0.20612738 -1.5751622 0.84619647 1.0223896e-38
0.21416044 -1.5752763 0.84613866 1.1881961e-38
0.22264099 -1.5751095 0.84310794 1.2526605e-38
0.37710711 -1.5763925 0.84418362 2.3971228e-39
0.38242984 -1.5720472 0.84466553 1.9361475e-39
0.44757915 -1.5730166 0.84520876 3.5953199e-39
0.45281726 -1.5773299 0.84543931 4.1488538e-39
0.19653638 -1.5646211 0.84213495 5.1578658e-39
0.20393369 -1.5645117 0.84541023 9.3026684e-39
0.21559808 -1.5645643 0.84538269 1.206635e-38
0.2218972 -1.567983 0.84328842 1.2526605e-38
0.38795426 -1.5686674 0.84466171 1.474812e-39
0.39495912 -1.5653985 0.84518224 1.013838e-39
0.40481594 -1.5627049 0.84457755 4.9778634e-39
0.415207 -1.5618645 0.84435081 8.9422516e-39
0.42525566 -1.5629125 0.84415776 3.5027431e-39
0.43532997 -1.5659994 0.84559321 2.0276326e-39
0.44193545 -1.5692587 0.84435916 3.686791e-39
0.19680263 -1.5561339 0.84191185 6.079092e-39
0.20464809 -1.554561 0.84501576 9.0268032e-39
0.21418962 -1.5565704 0.84535468 1.1974156e-38
0.22311246 -1.5542216 0.841757 1.261844e-38
0.19783165 -1.5451037 0.84190845 5.1578658e-39
0.2057512 -1.5447961 0.84492254 9.7632822e-39
0.21490403 -1.5450937 0.84476852 1.2065991e-38
0.22267786 -1.5449849 0.84139812 1.2526605e-38
-0.066929832 -1.5307519 0.84541094 1.1779175e-40
0.098921068 -1.5317059 0.84491229 8.6689368e-40
0.19811665 -1.5370117 0.8415696 6.079092e-39
0.20415989 -1.5340059 0.84405309 8.8424147e-39
0.21566539 -1.5342081 0.84394664 1.2065991e-38
0.22223566 -1.5357682 0.84108549 1.2526246e-38
0.095506072 -1.5201212 0.84250981 8.6617341e-40
0.19816849 -1.5263219 0.84093571 4.2369983e-39
0.20489441 -1.5246202 0.84353328 9.0264444e-39
0.21500708 -1.5255746 0.84359843 1.2065991e-38
0.22205432 -1.5240842 0.84041393 1.2434411e-38
-0.062069289 -1.5150687 0.84315443 1.1779175e-40
-0.059944235 -1.510097 0.84781122 1.1779175e-40
0.093438797 -1.5154535 0.84700948 8.6581187e-40
0.19970037 -1.510551 0.84081477 4.2369983e-39
0.20516072 -1.5153347 0.84310907 9.3026684e-39
0.21434352 -1.5148975 0.84324437 1.2065991e-38
0.2210438 -1.5144868 0.84041393 1.2342575e-38
-0.056826692 -1.5046965 0.84393549 1.1779175e-40
0.087364286 -1.5036631 0.84617275 8.6437134e-40
0.20498388 -1.5043678 0.84242946 8.842056e-39
0.2138586 -1.5039554 0.84265035 1.2157827e-38
0.22005966 -1.505103 0.84034562 1.2342575e-38
-0.05203687 -1.4975419 0.84607625 1.1779175e-40
-0.047402728 -1.491456 0.84430522 1.1779175e-40
0.079647608 -1.4929104 0.84352249 8.6328954e-40
0.082709663 -1.4968482 0.84476632 8.6364967e-40
0.20456369 -1.4945003 0.84154987 9.0264444e-39
0.2165406 -1.4946568 0.84124202 1.225038e-38
-0.042781115 -1.4864789 0.8453126 1.1779175e-40
-0.03820714 -1.4820561 0.84602851 1.1779175e-40
0.067515373 -1.4818326 0.84614927 9.5332296e-40
0.07355471 -1.4868664 0.8445462 9.536817e-40
0.20677099 -1.4860736 0.84185159 9.2108329e-39
0.21491137 -1.4846907 0.84126186 1.2158185e-38
-0.033725407 -1.4786652 0.8445273 1.1779175e-40
-0.024785096 -1.4732386 0.84497857 1.1779175e-40
0.049733032 -1.4706427 0.84556037 3.065168e-39
0.055638187 -1.4738661 0.84491426 9.0427429e-39
0.063059889 -1.4786242 0.84454966 2.6070752e-39
0.20518436 -1.475643 0.84117007 8.9342502e-39
0.21324226 -1.474377 0.84152776 1.2158185e-38
-0.014454012 -1.4682537 0.84464854 1.1779175e-40
-0.0056629162 -1.4656039 0.84499079 1.1779175e-40
0.0045517497 -1.4637237 0.84602022 2.4161931e-39
0.01473245 -1.4633244 0.84623885 8.3923261e-39
0.024909819 -1.4641728 0.84577435 2.2321634e-39
0.035105806 -1.4658169 0.84487444 9.4719368e-40
0.043872122 -1.4682256 0.84466386 1.2252211e-39
0.2062503 -1.4644725 0.84146261 9.3030285e-39
0.21473213 -1.4642563 0.84130543 1.225038e-38
0.20667848 -1.4558721 0.84172952 9.3026698e-39
0.21404001 -1.455429 0.84147727 1.2158185e-38
0.20526807 -1.4476055 0.84168524 8.9342502e-39
0.21389063 -1.4473156 0.84184676 1.2342215e-38
0.19700718 -1.4332136 0.84424406 4.427921e-39
0.20517619 -1.4339193 0.84439576 5.7193829e-39
0.21519358 -1.4339191 0.84439594 5.7193829e-39
0.22176307 -1.4329439 0.84439564 5.7193829e-39
0.26917315 -1.430992 0.84439594 5.7193829e-39
0.2723757 -1.4328978 0.84332561 2.3981724e-39
0.19574472 -1.4251711 0.84439862 5.7193829e-39
0.20429002 -1.4251747 0.84439665 5.7193829e-39
0.2156833 -1.4251758 0.844396 5.7193829e-39
0.22280408 -1.4251763 0.8443957 5.7193829e-39
0.25983256 -1.4251808 0.84439313 5.7193829e-39
0.26489395 -1.4242512 0.8436116 4.2431682e-39
0.14199485 -1.4104583 0.84621423 1.6606059e-39
0.15904425 -1.4115407 0.84559858 6.4573094e-39
0.1622581 -1.4153197 0.84344923 6.272558e-39
0.17465863 -1.41083 0.84275109 5.9037741e-39
0.18314475 -1.4108841 0.84272003 5.5346315e-39
0.19491032 -1.4165294 0.84439397 5.7193829e-39
0.20483084 -1.4165252 0.84439641 5.7193829e-39
0.21475174 -1.4165239 0.84439713 5.7193829e-39
0.22404012 -1.4159511 0.84439641 5.7193829e-39
0.23425351 -1.4136572 0.84439486 5.7193829e-39
0.2452729 -1.4161166 0.84439564 5.7193829e-39
0.25493062 -1.4162749 0.84363401 4.2435297e-39
0.26218751 -1.4196364 0.840994 1.8449958e-39
0.1450482 -1.4049027 0.84484136 3.5974386e-39
0.15468849 -1.4048226 0.84559667 5.4424344e-39
0.16529644 -1.4046668 0.84273523 6.640979e-39
0.17560931 -1.4047232 0.84137207 5.442433e-39
0.18563387 -1.4052802 0.84231687 4.3357253e-39
0.195216 -1.4051148 0.84439635 5.7193829e-39
0.20507383 -1.4051149 0.84439629 5.7193829e-39
0.21493147 -1.4051137 0.84439689 5.7193829e-39
0.22478925 -1.4051135 0.84439713 5.7193829e-39
0.23457204 -1.4039565 0.84343815 3.8743857e-39
0.24437131 -1.4069201 0.84281987 2.9517077e-39
0.1469529 -1.3982888 0.84183162 3.1364591e-39
0.15482958 -1.3982974 0.84150237 3.3208504e-39
0.18909244 -1.399128 0.84296781 0
0.194709 -1.399128 0.84296781 0
0.20453796 -1.399128 0.84296787 0
0.21577105 -1.3991278 0.84296787 0
0.2256148 -1.3992246 0.8429122 9.219563e-41
0.6666556 -1.9431195 0.8508178 1.9914256e-38
0.67927343 -1.9442919 0.85426807 2.3048907e-38
0.68476427 -1.9442869 0.85427016 2.2587929e-38
0.66962057 -1.9357533 0.85381061 1.6410822e-38
0.67419285 -1.9331646 0.85251713 1.9545474e-38
0.68454278 -1.9339107 0.85299551 2.2495734e-38
0.6951263 -1.9339064 0.85064858 2.3509886e-38
0.70286012 -1.9351183 0.85015368 2.3509886e-38
0.67730045 -1.9235125 0.85229748 1.9268887e-38
0.68568456 -1.920969 0.85203922 2.3509886e-38
0.69525027 -1.9223555 0.85147017 2.3509886e-38
0.7048806 -1.9238849 0.85084242 2.3509886e-38
0.71268535 -1.925351 0.85024059 2.3509886e-38
0.6833241 -1.9125881 0.85159671 1.6410822e-38
0.69538546 -1.9109589 0.85226887 2.3509886e-38
0.7049787 -1.9125056 0.85163081 2.3509886e-38
0.71461505 -1.9141246 0.85096282 2.3509886e-38
0.72242618 -1.9156655 0.85032713 2.3509886e-38
0.6880551 -1.9061556 0.85166883 1.8715713e-38
0.69942194 -1.9005299 0.85270667 2.3509886e-38
0.7051518 -1.9014487 0.85232574 2.3509886e-38
0.71471357 -1.9029797 0.85169095 2.3509886e-38
0.72446054 -1.9049633 0.85086852 2.3509886e-38
0.73038048 -1.9063175 0.85030699 2.3509886e-38
0.69448709 -1.895998 0.85265833 1.9914256e-38
0.70541704 -1.8907547 0.85290843 2.3509886e-38
0.71493125 -1.8922663 0.85227853 2.3509886e-38
0.7246123 -1.8941791 0.85148144 2.2772321e-38
0.73443961 -1.8964201 0.85054755 2.3509886e-38
0.69935036 -1.8880002 0.8521319 1.9914256e-38
0.70117378 -1.8824186 0.85254133 1.6410822e-38
0.73454428 -1.8857225 0.85115761 2.3509886e-38
0.74435735 -1.8879733 0.85021484 2.3509886e-38
0.70606035 -1.87502 0.852449 1.751717e-38
0.71518803 -1.8754618 0.85392493 2.2219147e-38
0.72395211 -1.8759021 0.85335565 2.2864516e-38
0.73480397 -1.8755283 0.85159332 2.3509886e-38
0.7446053 -1.8778405 0.85062003 2.3509886e-38
0.75053078 -1.8793132 0.8500002 2.3509886e-38
0.71409148 -1.8646142 0.85313475 2.0651821e-38
0.7256434 -1.8639574 0.85264719 2.3509886e-38
0.73523498 -1.8658701 0.85183811 2.3509886e-38
0.74490869 -1.8679454 0.8509602 2.3509886e-38
0.75080788 -1.8694036 0.85034335 2.3509886e-38
0.69843483 -1.8510137 0.85432637 2.3509886e-38
0.70550984 -1.851137 0.85427397 2.3509886e-38
0.71480048 -1.8524513 0.85371518 2.3509886e-38
0.72423202 -1.8540931 0.85301709 2.3509886e-38
0.73562652 -1.8562053 0.85211921 2.3509886e-38
0.74524653 -1.8582314 0.8512578 2.3509886e-38
0.75726306 -1.8514057 0.85035527 2.3509886e-38
0.68522185 -1.8421111 0.85432643 2.3509886e-38
0.69586849 -1.8425022 0.85415918 1.5304477e-38
0.70622021 -1.8421093 0.8543272 2.3509886e-38
0.71536207 -1.8431227 0.85389411 2.3509886e-38
0.72482127 -1.8449208 0.85312587 2.3509886e-38
0.73441553 -1.8449863 0.85183424 2.2126951e-38
0.74417663 -1.8442979 0.85149837 2.1389386e-38
0.75575155 -1.841731 0.85069776 2.3509886e-38
0.66862804 -1.8332782 0.85432696 2.3509886e-38
0.67580289 -1.8338295 0.85409027 2.1665973e-38
0.68563348 -1.8368299 0.85280204 1.9637315e-38
0.69436359 -1.8368248 0.85280424 1.7885602e-38
0.7042647 -1.8353205 0.85345024 1.9822062e-38
0.71412104 -1.8337321 0.85413212 2.3509886e-38
0.72616941 -1.8351309 0.85258639 2.3509886e-38
0.73239881 -1.8341819 0.8501569 2.3509886e-38
0.74677074 -1.8308954 0.85157496 2.3509886e-38
0.75435901 -1.8324026 0.85092461 2.3509886e-38
0.76008707 -1.8336046 0.85040599 2.3509886e-38
0.65563881 -1.8245173 0.85432702 2.3509886e-38
0.66492558 -1.8261901 0.85360515 1.7978148e-38
0.67429376 -1.8280472 0.85280395 1.8346939e-38
0.68472815 -1.8280411 0.85280657 1.6779256e-38
0.69516236 -1.8280344 0.85280943 1.6963647e-38
0.70507008 -1.8266648 0.85340041 1.9545476e-38
0.71483421 -1.824955 0.85413814 2.3509886e-38
0.72474134 -1.8246088 0.85146201 2.2495734e-38
0.73761761 -1.8246548 0.85238779 2.3509886e-38
0.74438834 -1.8238041 0.85181242 2.3509886e-38
0.75497437 -1.8237803 0.85087776 2.3509886e-38
0.76068622 -1.8249855 0.85035527 2.3509886e-38
0.63860059 -1.813014 0.85367346 2.0744017e-38
0.64478123 -1.8127453 0.85341483 2.0282684e-38
0.65475041 -1.8147097 0.8529377 1.7885959e-38
0.66523129 -1.8150083 0.85280818 1.6963646e-38
0.67560345 -1.8150014 0.85281128 1.6779256e-38
0.68597573 -1.8149948 0.85281402 1.6779256e-38
0.69557953 -1.8158548 0.85281581 1.6964006e-38
0.70412081 -1.8146769 0.85332662 1.9084501e-38
0.71373653 -1.8160553 0.85422742 2.3509886e-38
0.72559768 -1.8137904 0.85145646 2.1112799e-38
0.73384303 -1.8143291 0.85272759 2.3509886e-38
0.74621278 -1.813467 0.85159749 2.3509886e-38
0.75568056 -1.8154552 0.85073113 2.3509886e-38
0.76137143 -1.8166502 0.85021043 2.3509886e-38
0.62583309 -1.8043703 0.8536942 2.1297192e-38
0.63513136 -1.8034958 0.85314089 1.7332785e-38
0.64596599 -1.8021113 0.8528102 1.6779256e-38
0.65627784 -1.8021069 0.85281229 1.6594864e-38
0.66486943 -1.8020988 0.85281587 1.539632e-38
0.67346257 -1.8020951 0.85281748 1.6133885e-38
0.68377256 -1.8020864 0.85282129 1.6594864e-38
0.69408554 -1.8020853 0.85282177 1.6963647e-38
0.70528674 -1.8054603 0.85384125 2.1758171e-38
0.71453571 -1.8076473 0.85413325 2.3509886e-38
0.72614533 -1.804884 0.8515963 2.3509886e-38
0.73566818 -1.8028917 0.85246867 2.3509886e-38
0.74506307 -1.8048263 0.85162157 2.3509886e-38
0.75449365 -1.8067976 0.85075837 2.3509886e-38
0.7620514 -1.8083773 0.85006666 2.3509886e-38
0.52516413 -1.7928549 0.85314095 2.3509886e-38
0.59615391 -1.7901545 0.85432923 2.3509886e-38
0.60509259 -1.7913271 0.85381317 1.982206e-38
0.6149897 -1.796126 0.85356903 2.1020248e-38
0.62640005 -1.7936066 0.8528102 1.6779256e-38
0.63495958 -1.7936026 0.85281205 1.6779256e-38
0.64351892 -1.7935985 0.8528139 1.6502669e-38
0.65379047 -1.7935944 0.85281569 1.3552407e-38
0.66405934 -1.7935829 0.85282069 1.2077274e-38
0.67433077 -1.7935791 0.85282236 1.2261666e-38
0.68460083 -1.7935714 0.85282582 1.5580711e-38
0.69487357 -1.793571 0.85282594 1.7793406e-38
0.70514601 -1.7943922 0.85433197 2.3509886e-38
0.71403319 -1.795215 0.85397089 2.3509886e-38
0.72527182 -1.7956078 0.85118502 2.3509886e-38
0.73459864 -1.7944164 0.85245395 2.3509886e-38
0.74392533 -1.7962575 0.85164386 2.3509886e-38
0.75622541 -1.7955017 0.8504864 2.3509886e-38
0.52503848 -1.7848797 0.8529377 2.3509886e-38
0.531551 -1.7838283 0.85340267 2.3509886e-38
0.58540034 -1.7817243 0.85433292 2.3509886e-38
0.59477699 -1.784344 0.85317463 1.9268888e-38
0.60357642 -1.78517 0.85280943 1.7977797e-38
0.61380774 -1.7851652 0.85281157 1.6779256e-38
0.62403899 -1.7851602 0.85281372 1.6779256e-38
0.63427025 -1.7851553 0.85281593 1.5949495e-38
0.64450198 -1.7851518 0.85281736 1.3552766e-38
0.65473056 -1.7851399 0.8528226 1.1432265e-38
0.66496247 -1.7851375 0.85282379 8.2050551e-39
0.67519099 -1.7851261 0.8528288 8.4816406e-39
0.68542314 -1.7851243 0.85282964 1.4013384e-38
0.69520742 -1.7839752 0.85333771 1.972951e-38
0.70465112 -1.7819835 0.8542183 2.3509886e-38
0.71528369 -1.7824856 0.85275894 2.3509886e-38
0.72495699 -1.785484 0.85174239 2.3509886e-38
0.73544431 -1.7864938 0.85222405 2.3509886e-38
0.74575889 -1.7852075 0.85130852 2.3509886e-38
0.75392073 -1.7847056 0.85053891 2.3509886e-38
0.51833117 -1.7701811 0.85205394 2.3509886e-38
0.52446473 -1.7754312 0.85341632 2.3233299e-38
0.53574312 -1.7733898 0.85432315 2.341769e-38
0.56795228 -1.7733715 0.85433131 2.3509886e-38
0.57482409 -1.7736505 0.85420734 2.0744017e-38
0.58428627 -1.7766703 0.8528657 1.8715718e-38
0.59451896 -1.7767922 0.85281152 1.6963647e-38
0.60471058 -1.7767874 0.85281354 1.6779256e-38
0.61490208 -1.7767824 0.85281581 1.6779256e-38
0.62509352 -1.7767776 0.85281801 1.6502669e-38
0.6352852 -1.7767736 0.85281974 1.4474365e-38
0.64547563 -1.7767662 0.85282302 1.0602144e-38
0.65566486 -1.7767557 0.85282773 7.0065091e-39
0.66585714 -1.7767539 0.85282856 1.1062762e-38
0.67604524 -1.776741 0.85283428 1.4382168e-38
0.68623918 -1.7767435 0.85283321 1.7148035e-38
0.6950984 -1.7733288 0.85435027 2.3509886e-38
0.70563596 -1.7742475 0.8539421 2.3509886e-38
0.71521395 -1.7736448 0.85143399 2.3509886e-38
0.72561157 -1.7774794 0.85250622 2.3509886e-38
0.7350409 -1.7748127 0.85184258 2.3509886e-38
0.74374491 -1.7750593 0.85111457 2.3509886e-38
0.75200558 -1.7739623 0.85036588 2.3509886e-38
0.51831043 -1.762641 0.85173452 2.3509886e-38
0.5250023 -1.7632507 0.85330695 1.834693e-38
0.53404945 -1.7631813 0.85370654 2.3233299e-38
0.54269171 -1.7667234 0.85359752 2.3509886e-38
0.55576289 -1.7652667 0.85424787 2.3509886e-38
0.56414646 -1.76507 0.85433578 2.3509886e-38
0.57653099 -1.766421 0.85281253 1.8254383e-38
0.58533555 -1.7651787 0.85281503 1.6779256e-38
0.5945763 -1.7643486 0.85281748 1.6779256e-38
0.60470873 -1.7643439 0.85281962 1.6779256e-38
0.6148411 -1.7643393 0.85282183 1.5949495e-38
0.62497395 -1.7643356 0.85282332 1.2630448e-38
0.63510585 -1.7643298 0.85282594 8.2972508e-39
0.64523429 -1.7643145 0.85283279 1.0325555e-38
0.65536904 -1.7643169 0.85283166 1.2907036e-38
0.66457301 -1.7634808 0.85283697 1.5396321e-38
0.67317724 -1.7651224 0.85284024 1.7978156e-38
0.68469155 -1.7667134 0.85360205 2.1942563e-38
0.69605064 -1.7654953 0.85414582 2.3509886e-38
0.70655614 -1.7658825 0.85274297 2.3509886e-38
0.71630114 -1.7638305 0.85120088 2.3509886e-38
0.72511584 -1.7655379 0.85228491 2.3509886e-38
0.73471552 -1.7634188 0.85138559 2.3509886e-38
0.74381965 -1.7649847 0.85068303 2.3509886e-38
0.75111586 -1.7662449 0.85011792 2.3509886e-38
0.51510471 -1.7557739 0.85113722 2.3509886e-38
0.52474207 -1.7542125 0.85184097 2.3509886e-38
0.5356946 -1.7546874 0.85254848 2.3509886e-38
0.54502445 -1.7553639 0.85316437 2.3509886e-38
0.55480391 -1.7543683 0.85361195 2.3509886e-38
0.56419814 -1.7552359 0.85413992 2.3509886e-38
0.57382816 -1.7568288 0.85434175 2.3509886e-38
0.59462863 -1.7520329 0.85282344 1.7516819e-38
0.60470259 -1.7520285 0.85282546 1.6963647e-38
0.61477691 -1.752025 0.85282707 1.4658753e-38
0.62485117 -1.7520212 0.85282868 1.0694339e-38
0.63491988 -1.7520022 0.85283726 1.1892883e-38
0.64499503 -1.7520016 0.85283756 1.5488515e-38
0.65507019 -1.7520009 0.8528378 1.6963646e-38
0.67811739 -1.7567775 0.85436487 2.3509886e-38
0.68489933 -1.7569125 0.85430425 2.3509886e-38
0.69419891 -1.754097 0.85373408 2.3509886e-38
0.70403898 -1.7576892 0.85211587 2.3509886e-38
0.71467316 -1.7540493 0.85191453 2.3509886e-38
0.72485816 -1.7542784 0.85181135 2.3509886e-38
0.73390645 -1.7558128 0.8511197 2.3509886e-38
0.74479002 -1.7576689 0.85028309 2.3509886e-38
0.51515996 -1.7454001 0.85058218 2.3509886e-38
0.5251838 -1.745183 0.85133457 2.3509886e-38
0.53606844 -1.7455918 0.85206395 2.3509886e-38
0.54574156 -1.7443819 0.85261196 2.3509886e-38
0.55548102 -1.7434287 0.85304374 2.3509886e-38
0.56521618 -1.7452297 0.85369664 2.3509886e-38
0.5741834 -1.7451807 0.85408503 2.3509886e-38
0.58408266 -1.7447573 0.85427666 2.3509886e-38
0.59463829 -1.7405362 0.85435367 2.3509886e-38
0.60465127 -1.7405246 0.85435885 2.3509886e-38
0.61466902 -1.740527 0.8543579 2.3509886e-38
0.62548476 -1.7427616 0.85334587 2.3509886e-38
0.63469744 -1.7405119 0.85436469 2.3509886e-38
0.6447103 -1.740501 0.85436964 2.3509886e-38
0.6547274 -1.7405019 0.85436934 2.3509886e-38
0.66437954 -1.7447538 0.85427815 2.3509886e-38
0.67456985 -1.7451502 0.85409874 2.3509886e-38
0.6854558 -1.745139 0.85331982 2.3509886e-38
0.6956678 -1.7434162 0.85085332 2.2403539e-38
0.70571244 -1.7468921 0.85147512 2.3509886e-38
0.71524364 -1.7456009 0.85205984 2.3509886e-38
0.72528303 -1.7451901 0.85133141 2.3509886e-38
0.73539972 -1.7449522 0.85052347 2.3509886e-38
0.74213219 -1.7497817 0.85016638 2.3509886e-38
0.52537227 -1.7351389 0.85071844 2.3509886e-38
0.53529692 -1.7351617 0.85131747 2.1112799e-38
0.54439688 -1.7356386 0.85146391 2.0651821e-38
0.55454791 -1.7358239 0.85192651 2.3509886e-38
0.56445765 -1.7346575 0.8512845 2.046743e-38
0.5744729 -1.7385315 0.85160732 1.8715713e-38
0.58612889 -1.7346083 0.8521772 1.9914256e-38
0.59523183 -1.7321985 0.85303146 2.2034756e-38
0.60590047 -1.7329012 0.85416937 2.3509886e-38
0.61581057 -1.7326994 0.85426122 2.3509886e-38
0.62577826 -1.7326651 0.8542769 2.3509886e-38
0.63578993 -1.7327522 0.85423726 2.3509886e-38
0.64585578 -1.7329828 0.85413224 2.3509886e-38
0.65597922 -1.7333589 0.85396105 2.3509886e-38
0.66615933 -1.7338715 0.85372788 2.3509886e-38
0.6769768 -1.7336569 0.85236627 2.3509886e-38
0.68458152 -1.7345076 0.85100555 2.1758169e-38
0.70526499 -1.7344494 0.85200727 2.3509886e-38
0.71522778 -1.7350203 0.85138196 2.3509886e-38
0.72520351 -1.7356075 0.85074842 2.3509886e-38
0.73342878 -1.7339088 0.85005963 2.3509886e-38
0.20940743 -1.7246001 0.85067785 1.0408286e-38
0.54723358 -1.7230003 0.85141283 2.3509886e-38
0.55368477 -1.7224466 0.85166717 2.3509886e-38
0.56496435 -1.7214786 0.85211188 2.3509886e-38
0.57547003 -1.7240146 0.85276908 2.3509886e-38
0.58193749 -1.7235324 0.85298991 2.3509886e-38
0.59835106 -1.7286981 0.85244209 1.6410822e-38
0.60406268 -1.7252208 0.85221386 2.1112799e-38
0.61462504 -1.7241623 0.85243911 2.046743e-38
0.62500113 -1.7235049 0.85300118 1.9914256e-38
0.63489079 -1.7233683 0.853064 1.9914256e-38
0.64503366 -1.7239146 0.85281324 1.9914256e-38
0.65442061 -1.725234 0.85257161 2.2126951e-38
0.66401076 -1.7258682 0.85191685 2.2495734e-38
0.6741994 -1.7243084 0.8515417 2.2311342e-38
0.68631732 -1.7231586 0.85225165 2.3509886e-38
0.69545698 -1.7256929 0.85199958 2.3509886e-38
0.70528638 -1.7249954 0.85140854 2.3509886e-38
0.71522725 -1.7245648 0.85069406 2.3509886e-38
0.7222563 -1.7255106 0.85025954 2.3509886e-38
0.2088515 -1.7180473 0.8500576 1.0408286e-38
0.53609377 -1.7175258 0.8502984 2.3509886e-38
0.54446781 -1.7148376 0.85063398 2.3509886e-38
0.55527514 -1.7154794 0.85124296 2.3509886e-38
0.56491733 -1.7146703 0.85161638 2.3509886e-38
0.57459527 -1.7139978 0.85192674 2.3509886e-38
0.58559877 -1.7159475 0.85248059 2.3509886e-38
0.59401512 -1.7154652 0.85270292 2.3509886e-38
0.60372519 -1.7123919 0.85266799 2.3509886e-38
0.61353177 -1.7121639 0.85277319 2.3509886e-38
0.62452626 -1.7152177 0.85136366 2.3509886e-38
0.63503408 -1.7168665 0.85060263 2.3509886e-38
0.64624161 -1.7159171 0.85104084 2.3509886e-38
0.65659767 -1.7127532 0.85250133 2.3509886e-38
0.66499418 -1.7131543 0.85231614 2.3509886e-38
0.67344064 -1.713672 0.85207719 2.3509886e-38
0.68367189 -1.7145166 0.85168725 2.3509886e-38
0.69394016 -1.7154288 0.85126621 2.3509886e-38
0.70542145 -1.7148588 0.8506242 2.3509886e-38
0.71467358 -1.7176479 0.8502419 2.3509886e-38
0.54568839 -1.7096754 0.85030258 2.3509886e-38
0.55447215 -1.7054843 0.85044146 2.3509886e-38
0.56492049 -1.7052373 0.85081446 2.3509886e-38
0.57537061 -1.7040826 0.85109288 2.3509886e-38
0.58500719 -1.7034491 0.85138744 2.3509886e-38
0.59549648 -1.7060852 0.85196763 2.3509886e-38
0.60523552 -1.7057424 0.8521266 2.3509886e-38
0.6150493 -1.7056203 0.85218316 2.3509886e-38
0.62488538 -1.7055635 0.85220951 2.3509886e-38
0.63474077 -1.7055607 0.85221094 2.3509886e-38
0.64466459 -1.7057396 0.85212785 2.3509886e-38
0.65466547 -1.7061146 0.85195392 2.3509886e-38
0.665914 -1.7039967 0.85149401 2.3509886e-38
0.67545134 -1.7038741 0.85118979 2.3509886e-38
0.68566304 -1.7047728 0.85077208 2.3509886e-38
0.69509351 -1.7063049 0.85042173 2.3509886e-38
0.70380449 -1.7097267 0.85027885 2.3509886e-38
0.56973553 -1.6946598 0.85007262 2.3509886e-38
0.57613468 -1.6942425 0.85026807 2.3509886e-38
0.58572775 -1.6936165 0.85056108 2.3509886e-38
0.59456289 -1.6963209 0.85110062 2.3509886e-38
0.60427934 -1.6960402 0.85123163 2.3509886e-38
0.61489189 -1.6964203 0.85131139 2.3509886e-38
0.62549573 -1.6959062 0.85129422 2.3509886e-38
0.63529605 -1.6958722 0.85131007 2.3509886e-38
0.64515334 -1.69599 0.85125518 2.3509886e-38
0.65511972 -1.6963872 0.85106969 2.3509886e-38
0.66379857 -1.6951815 0.85073131 2.3509886e-38
0.67415643 -1.6941017 0.85033393 2.3509886e-38
0.68087393 -1.6945505 0.85012382 2.3509886e-38
0.58728456 -1.6870934 0.85002434 2.3509886e-38
0.59369087 -1.6867794 0.85017204 2.3509886e-38
0.60497963 -1.6864631 0.8503207 2.3509886e-38
0.61634356 -1.6863661 0.85036635 2.3509886e-38
0.62609762 -1.686323 0.85038662 2.3509886e-38
0.63585144 -1.6862806 0.85040659 2.3509886e-38
0.6456483 -1.6863518 0.85037309 2.3509886e-38
0.65559655 -1.686812 0.85015655 2.3509886e-38
0.66224003 -1.6871408 0.85000193 2.3509886e-38
0.35955793 -1.6149802 0.85449833 5.0621332e-39
0.36088762 -1.6044183 0.85445452 5.4301941e-39
0.3641274 -1.5949688 0.85465795 5.5213093e-39
0.46470332 -1.5946194 0.85582179 1.3530072e-38
0.36832029 -1.5869875 0.85545701 6.6265695e-39
0.37177429 -1.5822566 0.85418832 5.1557722e-39
0.45756716 -1.58292 0.85472327 1.0220408e-38
0.37677217 -1.5767626 0.8548457 5.8904492e-39
0.38246953 -1.5720702 0.85441828 5.7071411e-39
0.44578537 -1.571673 0.85519022 8.5580016e-39
0.45223698 -1.5769715 0.8559708 9.9409332e-39
0.38734639 -1.5689906 0.85413665 5.1554107e-39
0.39500505 -1.5654248 0.85537434 6.4421796e-39
0.40509376 -1.5626479 0.85425436 7.1865844e-39
0.41462326 -1.5618099 0.855021 9.0344473e-39
0.42402482 -1.5626923 0.85457444 7.0933084e-39
0.43372947 -1.5653877 0.85492557 7.0868302e-39
0.44050398 -1.5684896 0.85507518 7.8218757e-39
0.09869691 -1.5309924 0.85376853 8.6689368e-40
-0.06654226 -1.5278945 0.85536927 1.1779175e-40
-0.063098282 -1.5173864 0.85408586 1.1779175e-40
0.093893811 -1.5165553 0.85587037 8.6581328e-40
-0.05816872 -1.5070113 0.85448074 1.1779175e-40
0.086864144 -1.5029533 0.85560894 8.6437134e-40
-0.051512323 -1.4968748 0.85547113 1.1779175e-40
-0.047189653 -1.4912652 0.85443813 1.1779175e-40
0.079474889 -1.4928266 0.85360879 8.6328954e-40
0.082524277 -1.4966768 0.85490638 8.6364967e-40
-0.042585041 -1.4863545 0.85538548 1.1779175e-40
-0.03802694 -1.4819814 0.85605401 1.1779175e-40
0.067380585 -1.4818035 0.8561489 1.4132179e-39
0.073402904 -1.4868608 0.85456204 9.536817e-40
-0.033558372 -1.4785872 0.85455084 1.1779175e-40
-0.024645058 -1.4731711 0.85497332 1.1779175e-40
0.049651351 -1.4706446 0.85550451 9.5079922e-40
0.05554051 -1.4739267 0.85484308 3.8020128e-39
0.062939502 -1.478641 0.85452199 8.1236705e-39
-0.014347364 -1.4682899 0.85457051 1.1779175e-40
-0.0055830651 -1.4656911 0.85487324 2.2321634e-39
0.0046033803 -1.4637074 0.85594517 8.3923261e-39
0.014753893 -1.463326 0.85615134 8.7603869e-39
0.024901316 -1.4642044 0.85567671 4.3468951e-39
0.035067484 -1.4658551 0.85478449 8.5535819e-40
0.04380852 -1.4682822 0.85457462 8.5715886e-40
0.35992837 -1.621973 0.86331475 8.6462119e-39
0.3601892 -1.6246947 0.86549151 8.8306018e-39
0.35966814 -1.6192566 0.86114085 8.3725089e-39
0.36090711 -1.6049854 0.8663137 8.7355251e-39
0.36399332 -1.5953437 0.86525106 8.7362453e-39
0.46332082 -1.5920219 0.86228359 1.5447791e-38
0.36817184 -1.5871416 0.86365187 8.7348034e-39
0.37152052 -1.5825642 0.86521703 8.837087e-39
0.45799628 -1.5834445 0.86478192 1.4635321e-38
0.46194381 -1.5894316 0.86871332 1.5354874e-38
0.3763997 -1.5772077 0.8651191 8.7373271e-39
0.38341308 -1.5713438 0.86392087 8.638289e-39
0.44785467 -1.5732437 0.86639678 1.2593691e-38
0.45253634 -1.5771732 0.8644526 1.3529336e-38
0.38802975 -1.5686269 0.86612296 8.7301231e-39
0.39487031 -1.5654868 0.86466402 8.6386463e-39
0.40457058 -1.5627024 0.86481363 8.8356464e-39
0.41457623 -1.561879 0.86553407 9.033727e-39
0.42541617 -1.5629886 0.86433011 9.0157133e-39
0.43581858 -1.5662274 0.86476004 1.0477154e-38
0.44267166 -1.5696543 0.86475974 1.1579899e-38
0.098473981 -1.5302827 0.8625766 8.6689368e-40
-0.066141866 -1.524794 0.86538482 1.1779175e-40
0.09834142 -1.5298702 0.86783117 8.6689368e-40
-0.062800497 -1.5165311 0.86459965 1.1779175e-40
0.093061231 -1.5148392 0.86413872 8.6545174e-40
-0.057908252 -1.5065346 0.86475921 1.1779175e-40
0.08699891 -1.5033089 0.86476606 8.6473147e-40
-0.051949065 -1.4975468 0.86377871 1.1779175e-40
-0.047723409 -1.4920146 0.86567521 1.1779175e-40
0.079303198 -1.4927431 0.86363477 9.5512503e-40
0.082340457 -1.4965163 0.86497951 8.6364967e-40
-0.042385306 -1.4861217 0.86545497 1.1779175e-40
-0.037841376 -1.481753 0.86610079 1.1779175e-40
0.067246601 -1.4817748 0.86608952 5.1827836e-39
0.073252112 -1.4868569 0.86451799 1.1373527e-39
-0.033389919 -1.4784485 0.8645466 1.1779175e-40
-0.024506068 -1.4731106 0.86490494 1.1779175e-40
0.049571481 -1.4707155 0.86535364 9.5115936e-40
0.055443183 -1.4739783 0.86471868 1.1355506e-39
0.0628196 -1.4786497 0.86444026 9.3189697e-39
-0.014236134 -1.4683533 0.86496669 1.6804315e-39
-0.0055026636 -1.4657259 0.86472631 7.1970283e-39
0.0046545905 -1.4636998 0.86580706 4.5309248e-39
0.014775136 -1.4633381 0.86600006 2.50803e-39
0.024892874 -1.4642495 0.86551398 5.5421929e-39
0.035029616 -1.4659135 0.86462611 2.6016675e-39
0.043741472 -1.4683284 0.86498004 8.5716026e-40
0.35993028 -1.6112266 0.87711763 8.4650591e-39
0.36119229 -1.6040792 0.87536848 8.5568959e-39
0.36475834 -1.5934329 0.87534189 8.6483713e-39
0.46495861 -1.5950991 0.87967205 1.409293e-38
0.36824447 -1.5868586 0.87509775 8.4614563e-39
0.37193274 -1.5820633 0.87571955 8.6516125e-39
0.45607305 -1.5810924 0.87618971 1.3444334e-38
0.46058562 -1.5868917 0.87508285 1.4718145e-38
0.37709734 -1.5764008 0.87507099 8.6487314e-39
0.3822524 -1.5721873 0.8747012 8.5518527e-39
0.44630709 -1.5720208 0.87449247 1.2139915e-38
0.45222148 -1.5768398 0.8748557 1.3163429e-38
0.3878468 -1.5687242 0.87542844 8.5532946e-39
0.39489758 -1.565428 0.8747865 8.5514939e-39
0.40498236 -1.5626951 0.87500215 8.9318035e-39
0.41539705 -1.56183 0.87542796 9.0340871e-39
0.42477453 -1.5628195 0.87494069 8.9300015e-39
0.4345406 -1.5656816 0.87466151 1.0025898e-38
0.44124579 -1.568889 0.87534708 1.1038967e-38
-0.065852515 -1.5235211 0.87439448 1.1779175e-40
0.098172903 -1.529467 0.87473249 8.6689368e-40
-0.062482547 -1.515296 0.87523586 1.1779175e-40
0.093179017 -1.5152668 0.87359196 8.6545174e-40
-0.057647854 -1.5060314 0.87498617 1.1779175e-40
0.086803854 -1.5031842 0.87478715 8.6473147e-40
-0.052962188 -1.4989048 0.87367898 1.1779175e-40
-0.048287153 -1.492726 0.87521648 1.1779175e-40
0.079132527 -1.49266 0.87360114 9.5512503e-40
0.082158707 -1.49638 0.87497973 8.640098e-40
-0.042186495 -1.4858836 0.87546593 1.1779175e-40
-0.037656762 -1.4815216 0.87608814 1.1779175e-40
0.0671134 -1.4817461 0.87597162 7.2975154e-39
0.073092937 -1.4868329 0.87497342 1.2295483e-39
-0.033223189 -1.4783288 0.87447262 1.1779175e-40
-0.025254056 -1.4735286 0.87436372 1.1779175e-40
-0.01993867 -1.4707038 0.87682289 1.1779175e-40
0.049491972 -1.4707807 0.87514877 9.5115936e-40
0.055346087 -1.4740165 0.87454414 9.5152089e-40
0.062700495 -1.478662 0.87429875 7.848164e-39
-0.014124519 -1.4683715 0.87532437 6.8293262e-39
-0.0054225228 -1.4657502 0.87452728 2.2321634e-39
0.0047055646 -1.4636894 0.87561256 4.162864e-39
0.014796237 -1.4633522 0.87579006 1.1290598e-39
0.024884487 -1.4642972 0.87529254 1.0372243e-39
0.034991886 -1.4659656 0.87441403 6.6474586e-39
0.043675203 -1.4683906 0.8753143 8.5716026e-40
0.35967502 -1.6137775 0.8845064 7.0021609e-39
0.36099422 -1.6040653 0.8856588 6.9092436e-39
0.3641201 -1.5949932 0.88484269 6.8174109e-39
0.4635846 -1.5925187 0.88601792 1.2437363e-38
0.36838213 -1.5868838 0.88632584 6.8174095e-39
0.37181005 -1.5822114 0.88499659 6.8170508e-39
0.45885324 -1.5844947 0.88474971 1.1792716e-38
0.37676528 -1.5767673 0.88555562 6.8170494e-39
0.38241288 -1.5721121 0.88506365 6.7248566e-39
0.44576317 -1.5716823 0.88346922 9.9502491e-39
0.45216027 -1.576968 0.88565379 1.0778925e-38
0.38724437 -1.5690445 0.88474572 6.7248552e-39
0.39534274 -1.5653185 0.88469702 6.6330211e-39
0.40536371 -1.5625726 0.88518786 7.372035e-39
0.41425765 -1.5618087 0.88555884 9.0340871e-39
0.42416281 -1.5627505 0.88543808 8.2947102e-39
0.43474385 -1.5658377 0.88472664 8.1996181e-39
0.44161248 -1.5690856 0.88540089 9.2126868e-39
-0.06551379 -1.5221068 0.88507944 1.1779175e-40
0.097921453 -1.528865 0.8850314 8.6689368e-40
-0.062161595 -1.5139765 0.88584012 1.1779175e-40
0.092959784 -1.5150061 0.88367462 8.6545174e-40
-0.057389159 -1.5055324 0.88514632 1.1779175e-40
0.086608626 -1.5030311 0.88476324 8.6473147e-40
-0.052721888 -1.4984746 0.88378614 1.1779175e-40
-0.048067927 -1.4924254 0.88522547 1.1779175e-40
0.078962751 -1.4925743 0.88350981 9.5512503e-40
0.081978284 -1.4962503 0.88491696 8.640098e-40
-0.041988526 -1.4856381 0.88541979 1.1779175e-40
-0.037477408 -1.4813908 0.88596326 1.1779175e-40
0.068165645 -1.48271 0.88594025 5.5504858e-39
0.073790558 -1.487563 0.88513565 1.0455186e-39
-0.03305864 -1.4782408 0.88432306 1.1779175e-40
-0.025686834 -1.4737399 0.88501644 1.1779175e-40
-0.019835396 -1.4706631 0.88498193 1.1779175e-40
0.049412917 -1.4708456 0.88488752 9.5115936e-40
0.055244077 -1.4740556 0.88485354 9.5151949e-40
0.062582508 -1.4786897 0.88409203 7.5722988e-39
-0.013724717 -1.4682971 0.88555688 6.2775957e-39
-0.005342904 -1.4657781 0.8842696 1.1779175e-40
0.0047562607 -1.4636775 0.88536119 4.3468937e-39
0.014817216 -1.4633664 0.8855229 9.4503008e-40
0.024876149 -1.4643459 0.88501388 1.1779175e-40
0.03495441 -1.4660212 0.88414323 6.8314884e-39
0.043320868 -1.4683534 0.88552773 1.6847573e-39
0.35974544 -1.6200733 0.89528072 8.5723817e-39
0.36013249 -1.624114 0.89855313 8.4794658e-39
0.35947964 -1.616601 0.89175665 7.925206e-39
0.36091024 -1.6045933 0.89563859 8.0177632e-39
0.3642002 -1.5949148 0.89450723 7.0943579e-39
0.36823615 -1.5870428 0.89437932 6.725574e-39
0.37155834 -1.5825166 0.8958407 6.8174095e-39
0.45693538 -1.5821477 0.89601344 1.1332096e-38
0.46176302 -1.589094 0.89442444 1.2068941e-38
0.37669754 -1.5769053 0.89513057 6.7248538e-39
0.38334703 -1.5713857 0.89439481 6.7252153e-39
0.44730541 -1.5727919 0.89540428 9.9498875e-39
0.45298132 -1.5774883 0.89485264 1.0779284e-38
0.38792226 -1.5686839 0.89652091 6.7252153e-39
0.39478579 -1.5655074 0.89415419 6.540824e-39
0.40485495 -1.5626751 0.89554012 7.3720322e-39
0.41510591 -1.5618834 0.89528108 9.0340871e-39
0.42552137 -1.5629659 0.89506638 8.0174002e-39
0.43527693 -1.5659717 0.89474368 8.2914522e-39
0.44197926 -1.5692827 0.89539713 9.2126868e-39
-0.065177672 -1.5207032 0.89568233 1.1779175e-40
0.09767247 -1.5282835 0.89525437 8.6689508e-40
-0.061875705 -1.5132365 0.89608234 1.1779175e-40
0.09274181 -1.5147451 0.89369649 8.6545174e-40
-0.057131261 -1.5050205 0.89524859 1.1779175e-40
0.086414851 -1.5028847 0.89467639 8.6437134e-40
-0.052483115 -1.4980474 0.89382869 1.1779175e-40
-0.047850315 -1.4921322 0.89516944 1.1779175e-40
0.078766733 -1.4924942 0.89498436 9.547649e-40
