# .PCD v0.7 - Point Cloud Data file format
VERSION 0.7
FIELDS x y z rgb
SIZE 4 4 4 4
TYPE F F F F
COUNT 1 1 1 1
WIDTH 1016
HEIGHT 1
VIEWPOINT 0 0 0 1 0 0 0
POINTS 1016
DATA ascii
0.77427626 -1.6766285 0.77470046 8.0155744e-39
0.78419638 -1.6766285 0.77470046 8.015573e-39
0.7941165 -1.6766282 0.77470058 7.9233773e-39
0.80403662 -1.6766282 0.77470058 8.015573e-39
0.81395674 -1.6766282 0.77470058 8.0152128e-39
0.82387686 -1.6766282 0.77470058 7.830823e-39
0.83379698 -1.6766281 0.77470064 7.9233787e-39
0.84371704 -1.6766281 0.77470064 8.1077714e-39
0.85363722 -1.6766281 0.77470064 8.0159373e-39
0.86355728 -1.676628 0.7747007 8.0159359e-39
0.8734774 -1.6766281 0.77470064 7.9237417e-39
0.88339752 -1.676628 0.7747007 7.8315446e-39
0.89497095 -1.6766279 0.77470076 7.8315432e-39
0.90654439 -1.6766278 0.77470082 7.8315432e-39
0.91315782 -1.6766279 0.77470076 7.9233787e-39
-0.91229701 -1.6659403 0.7746979 7.9244647e-39
-0.90571737 -1.6659403 0.77469784 7.9244675e-39
-0.89584798 -1.6659402 0.77469784 7.8322719e-39
-0.8859787 -1.6659402 0.77469784 7.6478792e-39
-0.8761093 -1.6659402 0.77469784 7.6475177e-39
-0.86623985 -1.6659399 0.77469796 7.7397133e-39
-0.85979962 -1.662392 0.7746979 7.8319104e-39
-0.54572827 -1.6656259 0.77565622 6.6344532e-39
-0.53561878 -1.6659393 0.77469832 7.9233801e-39
-0.5249415 -1.6664461 0.77469838 8.1077714e-39
-0.51423228 -1.6659393 0.77469844 8.10777e-39
-0.50436288 -1.6659392 0.77469844 8.1074098e-39
-0.4944936 -1.6659393 0.77469844 8.1077672e-39
-0.48462424 -1.6659392 0.77469844 8.1996027e-39
-0.47475484 -1.6659392 0.77469844 8.1074084e-39
-0.4648855 -1.6659392 0.7746985 8.015573e-39
-0.45501614 -1.6659392 0.7746985 8.0155715e-39
-0.44514683 -1.665939 0.77469844 8.0155715e-39
-0.43527743 -1.6659392 0.7746985 8.0155715e-39
-0.42540804 -1.6659392 0.7746985 8.01521e-39
-0.4155387 -1.6659392 0.7746985 8.0152114e-39
-0.40486163 -1.6654322 0.77469856 7.9230158e-39
-0.39415792 -1.665939 0.7746985 7.7389861e-39
-0.38428852 -1.665939 0.7746985 7.9233773e-39
-0.37441912 -1.665939 0.77469856 8.10777e-39
-0.36454979 -1.665939 0.77469856 8.0159345e-39
-0.35468045 -1.665939 0.77469856 8.0159359e-39
-0.34481105 -1.665939 0.77469867 7.9233801e-39
-0.33494172 -1.665939 0.77469867 7.7389861e-39
-0.32507232 -1.6659389 0.77469867 7.7389875e-39
-0.31520301 -1.6659389 0.77469867 7.7393462e-39
-0.30533361 -1.665939 0.77469867 7.9230172e-39
-0.29820633 -1.6623908 0.77469862 8.0155715e-39
-0.12086122 -1.6623902 0.77469897 8.0155758e-39
-0.11452604 -1.6659383 0.77469891 7.9237389e-39
-0.10465669 -1.6659383 0.77469897 7.9237389e-39
-0.094787329 -1.6659383 0.77469897 7.8311831e-39
-0.08491797 -1.665938 0.77469897 7.8308216e-39
-0.0783384 -1.6659381 0.77469897 7.8311817e-39
0.10917924 -1.6659375 0.77469933 8.1081315e-39
0.1157588 -1.6659375 0.77469927 8.1081315e-39
0.12562813 -1.6659374 0.77469927 8.1077714e-39
0.1354975 -1.6659374 0.77469939 8.0159359e-39
0.14536683 -1.6659373 0.77469939 7.9237389e-39
0.15523617 -1.6659374 0.77469939 7.9237375e-39
0.16510552 -1.6659373 0.77469939 7.9237389e-39
0.17497486 -1.6659373 0.77469945 7.9233773e-39
0.18484421 -1.6659374 0.77469945 7.9233787e-39
0.19471355 -1.6659373 0.77469945 7.9237417e-39
0.20228577 -1.6647545 0.77469945 7.8319062e-39
0.24570516 -1.6659371 0.77469957 7.9237417e-39
0.25392959 -1.6659371 0.77469963 7.8311845e-39
0.26467827 -1.6654302 0.77469963 7.8315446e-39
0.27531037 -1.6659371 0.77469963 7.8319076e-39
0.2851797 -1.6659369 0.77469963 7.9237431e-39
0.29504904 -1.6659369 0.77469969 7.9237431e-39
0.30491838 -1.6659369 0.77469963 7.9241046e-39
0.31478769 -1.6659368 0.77469969 7.9244675e-39
0.32465708 -1.6659368 0.77469969 7.8322705e-39
0.33452639 -1.6659368 0.77469969 7.6478778e-39
0.34518093 -1.6664437 0.77469969 7.6475177e-39
0.35591277 -1.6659368 0.77469975 7.7397147e-39
0.36413723 -1.6659366 0.77469981 7.8322719e-39
0.48833361 -1.6647536 0.77469999 7.924106e-39
0.49572551 -1.6659364 0.77469999 7.8315474e-39
0.50559485 -1.6659361 0.77469999 7.8311845e-39
0.51546413 -1.6659361 0.77469999 7.8311831e-39
0.52533346 -1.6659361 0.77470011 7.8308216e-39
0.53520286 -1.6659361 0.77470011 7.9233759e-39
0.54507214 -1.665936 0.77470011 7.9233759e-39
0.55494148 -1.665936 0.77470011 7.8308216e-39
0.56481081 -1.665936 0.77470016 7.8311817e-39
0.57468015 -1.665936 0.77470016 7.8315432e-39
0.58454949 -1.6659359 0.77470016 7.8319048e-39
0.59441882 -1.665936 0.77470016 7.8315446e-39
0.60428816 -1.6659359 0.77470022 7.8311845e-39
0.61415744 -1.6659359 0.77470022 7.831546e-39
0.62402672 -1.6659359 0.77470022 7.8322677e-39
0.63475192 -1.6664428 0.77470022 7.9237403e-39
0.6454131 -1.6659359 0.77470022 7.9241004e-39
0.65528244 -1.6659359 0.77470022 7.9237403e-39
0.66515177 -1.6659359 0.77470034 7.8315446e-39
0.67502111 -1.6659359 0.77470022 7.7389889e-39
0.68489045 -1.6659359 0.77470034 8.0155758e-39
0.69475967 -1.6659356 0.77470034 8.1077714e-39
0.704629 -1.6659356 0.7747004 8.10777e-39
0.71526772 -1.6654288 0.77470046 8.1074098e-39
0.72600979 -1.6659355 0.7747004 8.1996027e-39
0.73587912 -1.6659355 0.7747004 8.1996027e-39
0.74574834 -1.6659355 0.7747004 8.1074084e-39
0.7556178 -1.6659355 0.77470046 8.015573e-39
0.76548702 -1.6659354 0.77470046 8.0155715e-39
0.77535635 -1.6659352 0.77470058 8.015573e-39
0.78522569 -1.6659354 0.77470046 8.0155715e-39
0.79509497 -1.6659352 0.77470058 8.01521e-39
0.8049643 -1.6659352 0.77470058 8.0152114e-39
0.8148337 -1.6659352 0.77470058 7.9230158e-39
0.82470298 -1.665935 0.77470058 7.7389861e-39
0.83457226 -1.665935 0.77470064 7.9230186e-39
0.84444159 -1.665935 0.77470064 8.1077686e-39
0.85431093 -1.665935 0.77470064 8.0159345e-39
0.86418027 -1.6659349 0.77470064 8.0159359e-39
0.87404948 -1.6659349 0.77470064 7.9233801e-39
0.88391876 -1.6659349 0.7747007 7.7389861e-39
0.8937881 -1.6659349 0.7747007 7.7389875e-39
0.90365744 -1.6659349 0.7747007 7.7393462e-39
0.91188192 -1.6659349 0.7747007 7.8311817e-39
-0.91244447 -1.655344 0.77469784 7.9248277e-39
-0.90589839 -1.655344 0.77469784 7.9248291e-39
-0.89607936 -1.655344 0.77469784 7.9244689e-39
-0.88626033 -1.6553439 0.77469796 7.8322733e-39
-0.8764413 -1.6553439 0.77469796 7.6482394e-39
-0.86498576 -1.6553439 0.7746979 7.6478792e-39
-0.85516673 -1.6553439 0.7746979 7.8322705e-39
-0.55096585 -1.6512986 0.77682793 3.411597e-39
-0.54737878 -1.6568549 0.77612334 6.3585922e-39
-0.536048 -1.6553432 0.77469832 7.9237417e-39
-0.52622896 -1.6553432 0.77469832 8.1077714e-39
-0.51640993 -1.6553432 0.77469832 8.1077714e-39
-0.50495434 -1.6553431 0.77469838 8.10777e-39
-0.49349889 -1.6553431 0.77469844 8.1996041e-39
-0.48367986 -1.6553431 0.77469844 8.1996027e-39
-0.47386077 -1.6553431 0.77469844 8.015573e-39
-0.4640418 -1.6553429 0.77469844 8.0155744e-39
-0.45422277 -1.6553429 0.77469844 8.107407e-39
-0.44440374 -1.6553429 0.77469844 8.1996041e-39
-0.43458471 -1.6553429 0.77469844 8.1077672e-39
-0.42476568 -1.6553429 0.77469844 8.1074056e-39
-0.41494659 -1.6553427 0.7746985 8.1077686e-39
-0.40512761 -1.6553427 0.7746985 7.9233787e-39
-0.39530858 -1.6553427 0.7746985 7.830823e-39
-0.38548949 -1.6553427 0.7746985 7.8315418e-39
-0.37567046 -1.6553427 0.77469856 8.0155744e-39
-0.36585149 -1.6553427 0.7746985 8.10777e-39
-0.35603246 -1.6553427 0.7746985 8.0159331e-39
-0.34621343 -1.6553427 0.77469856 7.9233787e-39
-0.3363944 -1.6553427 0.77469856 7.7386259e-39
-0.32493883 -1.6553427 0.77469856 7.7389861e-39
-0.3134833 -1.6553427 0.77469856 7.7389861e-39
-0.30366427 -1.6553427 0.77469856 7.9230172e-39
-0.29548174 -1.6553427 0.77469862 8.0152128e-39
-0.12201229 -1.6553421 0.77469891 8.0162974e-39
-0.11382977 -1.6553421 0.77469891 7.9241018e-39
-0.10401074 -1.655342 0.77469891 7.9233801e-39
-0.09419173 -1.655342 0.77469891 7.8311817e-39
-0.084372699 -1.6553417 0.77469897 7.7389861e-39
-0.077826694 -1.655342 0.77469891 7.830823e-39
0.10873464 -1.6553414 0.77469927 8.1084917e-39
0.11528065 -1.6553413 0.77469939 8.1084931e-39
0.12509966 -1.6553413 0.77469939 8.1081329e-39
0.13491867 -1.6553413 0.77469939 8.016296e-39
0.14473768 -1.6553411 0.77469939 7.9237403e-39
0.15455669 -1.6553411 0.77469939 8.0155758e-39
0.16437571 -1.6553411 0.77469945 8.0159359e-39
0.17419471 -1.655341 0.77469945 8.0155744e-39
0.18401372 -1.655341 0.77469945 8.0159359e-39
0.19383274 -1.655341 0.77469945 7.9241004e-39
0.20201525 -1.655341 0.77469945 7.9241018e-39
0.2462008 -1.655341 0.77469951 7.8319048e-39
0.2560198 -1.6553408 0.77469951 7.8311831e-39
0.2658388 -1.6553408 0.77469951 7.8319076e-39
0.2756578 -1.6553408 0.77469963 7.9241046e-39
0.2854768 -1.6553408 0.77469963 7.9241046e-39
0.29529583 -1.6553408 0.77469963 7.9241046e-39
0.30511481 -1.6553407 0.77469969 7.9244675e-39
0.31493384 -1.6553407 0.77469969 7.9248277e-39
0.32475284 -1.6553406 0.77469969 7.9244689e-39
0.33457184 -1.6553406 0.77469975 7.8322733e-39
0.34439084 -1.6553406 0.77469975 7.6482394e-39
0.35420981 -1.6553406 0.77469975 7.6478792e-39
0.36239234 -1.6553404 0.77469981 7.740435e-39
0.48676634 -1.6553402 0.77469993 7.8329922e-39
0.49494886 -1.6553401 0.77469999 7.9241032e-39
0.50476784 -1.6553401 0.77469999 7.9233787e-39
0.51458687 -1.6553401 0.77469999 7.9233787e-39
0.52440584 -1.6553398 0.77469999 7.9233773e-39
0.53422487 -1.6553398 0.77469999 8.0152114e-39
0.54404384 -1.6553398 0.77469999 8.0152128e-39
0.55386287 -1.6553398 0.77469999 7.9230158e-39
0.56368184 -1.6553398 0.77470011 7.8308202e-39
0.57350081 -1.6553398 0.77470011 7.8311803e-39
0.58495635 -1.6553397 0.77470016 7.9233801e-39
0.59641182 -1.6553397 0.77470016 7.8311845e-39
0.6062308 -1.6553397 0.77470016 7.8311831e-39
0.61604983 -1.6553397 0.77470016 7.831546e-39
0.6258688 -1.6553396 0.77470022 7.9241046e-39
0.63568777 -1.6553396 0.77470022 7.9241018e-39
0.64550674 -1.6553396 0.77470022 7.9241018e-39
0.65532577 -1.6553396 0.77470022 8.0159359e-39
0.66514474 -1.6553396 0.77470022 7.9233801e-39
0.67496377 -1.6553396 0.77470022 7.831546e-39
0.68478274 -1.6553394 0.77470034 8.0159359e-39
0.69460171 -1.6553394 0.77470034 8.1077714e-39
0.70442075 -1.6553394 0.77470034 8.1077714e-39
0.71423978 -1.6553394 0.77470034 8.10777e-39
0.72405869 -1.6553394 0.77470034 8.1996041e-39
0.73387766 -1.6553394 0.77470034 8.1996027e-39
0.74369669 -1.6553392 0.77470034 8.1074084e-39
0.75351566 -1.6553392 0.7747004 8.0155744e-39
0.76497114 -1.6553392 0.7747004 8.107407e-39
0.77642661 -1.6553392 0.7747004 8.1996055e-39
0.78624558 -1.6553391 0.77470046 8.107407e-39
0.79606462 -1.6553391 0.77470046 8.107407e-39
0.80588359 -1.6553389 0.77470046 8.1077686e-39
0.81570262 -1.6553391 0.77470046 7.9233787e-39
0.82552153 -1.6553389 0.77470046 7.8311817e-39
0.8353405 -1.6553389 0.77470058 7.9233773e-39
0.84515953 -1.6553389 0.77470058 8.0155744e-39
0.8549785 -1.6553389 0.77470064 8.10777e-39
0.86479741 -1.6553388 0.77470064 8.0155744e-39
0.87461644 -1.6553389 0.77470058 7.9233773e-39
0.88443547 -1.6553388 0.77470064 7.7386259e-39
0.89425445 -1.6553388 0.77470064 7.7389861e-39
0.90407342 -1.6553388 0.77470064 7.7389861e-39
0.91225588 -1.6553386 0.7747007 7.8311817e-39
-0.91259038 -1.6448674 0.77469778 7.8322719e-39
-0.90607756 -1.6448674 0.77469778 7.7404364e-39
-0.89630824 -1.6448674 0.77469778 7.8322719e-39
-0.88562334 -1.6443708 0.77469784 7.9244675e-39
-0.87442887 -1.6453639 0.77469784 7.8319104e-39
-0.86374402 -1.6448673 0.77469784 7.7400721e-39
-0.85397464 -1.6448673 0.77469784 7.8322705e-39
-0.84762037 -1.6413907 0.77469784 7.9244661e-39
-0.55308241 -1.6447874 0.77596706 5.7135871e-39
-0.54461437 -1.6448665 0.77469826 7.8315446e-39
-0.53484505 -1.6448665 0.77469826 7.9237403e-39
-0.52507585 -1.6448665 0.77469826 7.9241004e-39
-0.51530659 -1.6448665 0.77469826 8.0159359e-39
-0.50553733 -1.6448665 0.77469826 8.0155744e-39
-0.49494678 -1.6443698 0.77469826 8.1077686e-39
-0.48437333 -1.6448665 0.77469826 8.107407e-39
-0.47460404 -1.6448663 0.77469832 8.015573e-39
-0.46483478 -1.6448665 0.77469832 7.9237389e-39
-0.45506552 -1.6448663 0.77469832 8.0155744e-39
-0.44529629 -1.6448663 0.77469832 8.1077714e-39
-0.435527 -1.6448663 0.77469832 8.1077714e-39
-0.42575774 -1.6448663 0.77469832 8.0159373e-39
-0.4151623 -1.645363 0.77469832 8.0159387e-39
-0.40458825 -1.6448663 0.77469832 7.9237403e-39
-0.39481893 -1.644866 0.77469844 7.8311831e-39
-0.3850497 -1.644866 0.77469844 7.8315418e-39
-0.37528041 -1.644866 0.77469844 8.0155744e-39
-0.36551118 -1.644866 0.77469844 8.0159345e-39
-0.35495445 -1.6443694 0.77469844 7.9233787e-39
-0.34434721 -1.644866 0.7746985 7.8311817e-39
-0.33457792 -1.644866 0.7746985 7.8308216e-39
-0.32480872 -1.6448659 0.7746985 7.8308216e-39
-0.31503943 -1.644866 0.7746985 7.8308216e-39
-0.30527017 -1.6448659 0.7746985 7.8311817e-39
-0.29550087 -1.644866 0.77469856 7.9230172e-39
-0.28772917 -1.6437069 0.77469856 7.9233759e-39
-0.12546456 -1.64417 0.77469885 8.0159345e-39
-0.11549922 -1.6453621 0.77469885 8.0159373e-39
-0.10499755 -1.6448654 0.77469891 7.9241004e-39
-0.09450376 -1.6443688 0.77469885 7.9237389e-39
-0.083833575 -1.6448654 0.77469891 7.9233773e-39
-0.07732074 -1.6448653 0.77469897 7.8311817e-39
0.10829504 -1.6448647 0.77469921 8.1081329e-39
0.11480787 -1.6448646 0.77469927 8.1081329e-39
0.12457711 -1.6448646 0.77469921 8.0162974e-39
0.13434637 -1.6448646 0.77469927 8.0159373e-39
0.14411561 -1.6448646 0.77469939 8.0155758e-39
0.15388487 -1.6448646 0.77469927 8.0155758e-39
0.16454874 -1.6443679 0.77469927 8.0155744e-39
0.17504881 -1.6448644 0.77469939 8.0155744e-39
0.18555674 -1.6453609 0.77469933 8.0155758e-39
0.19621825 -1.6448644 0.77469939 8.0159373e-39
0.2037129 -1.6437055 0.77469939 8.0159387e-39
0.24506448 -1.6448641 0.77469951 7.9233801e-39
0.2548337 -1.6448641 0.77469951 7.8311831e-39
0.26460293 -1.6448641 0.77469951 7.9237417e-39
0.27437219 -1.6448641 0.77469951 7.9241032e-39
0.28414142 -1.6448637 0.77469963 7.9241032e-39
0.29477385 -1.6443672 0.77469963 7.8322691e-39
0.30530539 -1.644864 0.77469963 7.8322705e-39
0.31507462 -1.644864 0.77469963 7.7404364e-39
0.32484385 -1.6448637 0.77469963 7.8326306e-39
0.33461308 -1.644864 0.77469969 7.9244675e-39
0.34515953 -1.6453604 0.77469969 7.8319104e-39
0.35578251 -1.6448637 0.77469969 7.7400721e-39
0.36229536 -1.6448638 0.77469969 7.8319104e-39
0.47875279 -1.6413867 0.77469993 7.9248291e-39
0.48522973 -1.6441679 0.77469993 7.9244675e-39
0.49499065 -1.6453599 0.77470005 7.9241032e-39
0.50557745 -1.6448632 0.77469999 7.8319048e-39
0.51534671 -1.6448632 0.77469999 7.9237403e-39
0.52511597 -1.6448632 0.77470011 7.9237389e-39
0.53488517 -1.6448631 0.77469999 8.0155715e-39
0.54465437 -1.6448632 0.77470011 8.0152128e-39
0.55442369 -1.6448631 0.77470011 7.9230172e-39
0.56499076 -1.6443663 0.77470011 7.9230158e-39
0.57558757 -1.644863 0.77470011 7.8311817e-39
0.58535677 -1.6448631 0.77470011 7.831546e-39
0.59512603 -1.6448631 0.77470016 7.9237431e-39
0.60489529 -1.644863 0.77470016 7.9233815e-39
0.61466449 -1.6448628 0.77470016 7.8315446e-39
0.62443364 -1.6448628 0.77470016 7.831909e-39
0.6342029 -1.6448628 0.77470016 7.9241032e-39
0.6448217 -1.6453594 0.77470022 7.9241018e-39
0.65537232 -1.6448627 0.77470022 8.0159387e-39
0.66514152 -1.6448627 0.77470022 7.9237403e-39
0.67491078 -1.6448627 0.77470022 7.8315446e-39
0.68467999 -1.6448627 0.77470022 7.9237403e-39
0.6952157 -1.644366 0.77470028 7.9241004e-39
0.70584393 -1.6448627 0.77470034 7.9237403e-39
0.71561313 -1.6448625 0.77470034 8.0155744e-39
0.72538233 -1.6448625 0.7747004 8.1077686e-39
0.73515153 -1.6448625 0.7747004 8.107407e-39
0.74492079 -1.6448625 0.7747004 8.015573e-39
0.75468999 -1.6448625 0.7747004 7.9237389e-39
0.76445919 -1.6448623 0.7747004 8.0155744e-39
0.77422851 -1.6448625 0.77470046 8.1077714e-39
0.78399771 -1.6448623 0.77470046 8.1077714e-39
0.79465258 -1.645359 0.77470058 8.0159373e-39
0.80516714 -1.6448622 0.77470046 8.0159387e-39
0.81493622 -1.6448623 0.77470046 7.9237403e-39
0.82544053 -1.6443655 0.77470052 7.8311831e-39
0.83610016 -1.6448622 0.77470046 7.9233773e-39
0.84586948 -1.6448622 0.77470058 8.0155744e-39
0.85563868 -1.6448622 0.77470058 8.0155758e-39
0.86540788 -1.6448621 0.77470064 7.9233787e-39
0.87517709 -1.6448621 0.77470058 7.8311817e-39
0.88494629 -1.6448618 0.77470064 7.8308216e-39
0.89471549 -1.6448621 0.77470064 7.8308216e-39
0.90448475 -1.6448618 0.77470064 7.8308216e-39
0.91262567 -1.6448619 0.77470064 7.9230172e-39
-0.91273493 -1.6344846 0.77469772 7.7400763e-39
-0.90625495 -1.6344846 0.77469778 7.7400749e-39
-0.89491498 -1.6344845 0.77469778 7.8322719e-39
-0.88357502 -1.6344846 0.77469778 7.9244675e-39
-0.87385511 -1.6344846 0.77469778 7.8319076e-39
-0.86413509 -1.6344846 0.77469778 7.8311859e-39
-0.85441518 -1.6344844 0.77469778 7.831546e-39
-0.84469527 -1.6344844 0.77469784 7.8315502e-39
-0.56143844 -1.6307499 0.77669013 2.489282e-39
-0.55709809 -1.6361278 0.77627116 5.7135885e-39
-0.54499662 -1.6344838 0.7746982 7.8311845e-39
-0.53365672 -1.6344838 0.7746982 7.8311831e-39
-0.52393675 -1.6344837 0.77469826 7.8315446e-39
-0.51421678 -1.6344837 0.77469826 7.9233801e-39
-0.50449681 -1.6344837 0.77469826 8.0155744e-39
-0.49477687 -1.6344837 0.77469826 8.1074098e-39
-0.48505697 -1.6344837 0.77469826 8.107407e-39
-0.47533703 -1.6344835 0.77469826 8.0155715e-39
-0.46561706 -1.6344835 0.77469832 7.9237403e-39
-0.45589709 -1.6344835 0.77469832 8.0159345e-39
-0.44617715 -1.6344835 0.77469832 8.0159345e-39
-0.43645725 -1.6344833 0.77469844 7.9241032e-39
-0.42511725 -1.6344833 0.77469838 7.8322705e-39
-0.41377735 -1.6344833 0.77469844 8.0159373e-39
-0.40405738 -1.6344833 0.77469844 7.8319076e-39
-0.39433751 -1.6344833 0.77469844 7.7393462e-39
-0.38461748 -1.6344832 0.77469844 7.8311817e-39
-0.37489757 -1.6344832 0.77469844 8.015573e-39
-0.36517763 -1.6344832 0.77469844 8.0155744e-39
-0.35545766 -1.6344832 0.77469844 7.9230172e-39
-0.3457377 -1.634483 0.7746985 7.8311817e-39
-0.33601776 -1.6344832 0.7746985 7.8311803e-39
-0.32629785 -1.6344832 0.77469844 7.8311817e-39
-0.31495792 -1.6344831 0.7746985 7.9233773e-39
-0.30361795 -1.634483 0.7746985 7.9230172e-39
-0.29389799 -1.634483 0.77469856 7.9233759e-39
-0.28417808 -1.634483 0.77469856 7.9233787e-39
-0.2776981 -1.634483 0.77469856 7.9233773e-39
-0.13351898 -1.6344826 0.77469885 8.0155744e-39
-0.12541902 -1.6344825 0.77469891 8.0159373e-39
-0.11569908 -1.6344825 0.77469891 8.0162974e-39
-0.10597914 -1.6344824 0.77469891 8.0159387e-39
-0.096259207 -1.6344824 0.77469891 8.0155772e-39
-0.084919281 -1.6344824 0.77469891 7.9237389e-39
-0.07681933 -1.6344823 0.77469897 7.9233787e-39
0.10785939 -1.6344818 0.77469921 8.0159373e-39
0.11433934 -1.6344818 0.77469921 8.0159359e-39
0.12405927 -1.6344818 0.77469927 8.0159373e-39
0.13377921 -1.6344818 0.77469927 8.0159387e-39
0.14511912 -1.6344817 0.77469927 7.9237403e-39
0.15645903 -1.6344815 0.77469927 8.0155744e-39
0.16617896 -1.6344815 0.77469939 8.1074098e-39
0.17589889 -1.6344815 0.77469939 8.0155744e-39
0.18561882 -1.6344814 0.77469939 8.0155758e-39
0.19533873 -1.6344814 0.77469939 8.0159331e-39
0.20343867 -1.6344814 0.77469939 8.0159345e-39
0.24555835 -1.6344813 0.77469945 7.9237417e-39
0.25365829 -1.6344811 0.77469945 8.0159373e-39
0.2649982 -1.6344812 0.77469951 8.0162988e-39
0.2763381 -1.6344811 0.77469951 7.9241018e-39
0.28605804 -1.6344811 0.77469951 7.8322677e-39
0.29577795 -1.6344811 0.77469951 7.8322691e-39
0.30549788 -1.6344811 0.77469951 7.7400749e-39
0.31521779 -1.6344811 0.77469963 7.7400749e-39
0.3249377 -1.6344811 0.77469963 7.8322719e-39
0.33465764 -1.6344811 0.77469963 7.9244675e-39
0.34437755 -1.634481 0.77469969 7.8319076e-39
0.35409746 -1.634481 0.77469969 7.8311859e-39
0.3605774 -1.634481 0.77469969 7.8315446e-39
0.47721642 -1.6344805 0.77469993 7.9244661e-39
0.48369634 -1.6344805 0.77469993 7.9244647e-39
0.49503624 -1.6344805 0.77469993 7.9241032e-39
0.50637621 -1.6344805 0.77469993 7.8319076e-39
0.51609606 -1.6344805 0.77469999 7.9237417e-39
0.52581602 -1.6344804 0.77469999 7.924099e-39
0.53553593 -1.6344804 0.77469999 8.0159345e-39
0.54525584 -1.6344804 0.77469999 8.0162946e-39
0.55497569 -1.6344801 0.77469999 8.0155744e-39
0.56469566 -1.6344801 0.77469999 8.0152114e-39
0.5744155 -1.6344801 0.77470011 7.9237375e-39
0.58413547 -1.6344801 0.77470011 7.9237431e-39
0.59385538 -1.6344801 0.77470011 7.9241032e-39
0.60357529 -1.6344801 0.77470016 7.9237417e-39
0.61491519 -1.6344801 0.77470016 7.9237403e-39
0.6262551 -1.6344801 0.77470016 7.9241032e-39
0.63597494 -1.6344801 0.77470016 7.9241018e-39
0.64569491 -1.63448 0.77470022 8.0159373e-39
0.65541482 -1.63448 0.77470022 8.0163002e-39
0.66513473 -1.63448 0.77470022 7.9237431e-39
0.67485458 -1.63448 0.77470022 7.8311831e-39
0.68457454 -1.6344799 0.77470034 7.8311831e-39
0.69429445 -1.6344799 0.77470034 7.8315446e-39
0.70401436 -1.6344799 0.77470034 7.9237403e-39
0.71373421 -1.6344799 0.77470034 8.015573e-39
0.72507417 -1.6344798 0.77470034 8.1077686e-39
0.73641396 -1.6344796 0.77470034 8.107407e-39
0.74613386 -1.6344796 0.77470034 8.0155715e-39
0.75585383 -1.6344796 0.77470034 7.9237403e-39
0.76557374 -1.6344796 0.77470034 8.0159345e-39
0.77529365 -1.6344795 0.7747004 8.0159345e-39
0.7850135 -1.6344795 0.7747004 7.9241046e-39
0.79473346 -1.6344795 0.7747004 7.8322705e-39
0.80445331 -1.6344794 0.77470046 7.9241018e-39
0.81417322 -1.6344794 0.77470046 7.9237431e-39
0.82389307 -1.6344794 0.77470046 7.7393476e-39
0.83361298 -1.6344794 0.77470046 7.8311817e-39
0.84495288 -1.6344794 0.77470052 7.9237375e-39
0.85629272 -1.6344792 0.77470058 8.015573e-39
0.86601275 -1.6344794 0.77470058 7.9230172e-39
0.8757326 -1.6344792 0.77470058 7.8311817e-39
0.88545251 -1.6344792 0.77470058 7.8311803e-39
0.89517242 -1.6344792 0.77470064 7.8311817e-39
0.90489227 -1.6344792 0.77470064 7.9233773e-39
0.91137224 -1.6344792 0.77470064 7.9233773e-39
-0.91287792 -1.6242175 0.77469772 7.6475177e-39
-0.90551919 -1.6237308 0.77469778 7.6475191e-39
-0.89444667 -1.6247042 0.77469778 7.6482408e-39
-0.88386422 -1.6242174 0.77469778 7.740435e-39
-0.87419319 -1.6242175 0.77469778 7.6478778e-39
-0.86452198 -1.6242175 0.77469778 7.5553221e-39
-0.85485077 -1.6242174 0.77469778 7.5553207e-39
-0.84517956 -1.6242174 0.77469778 7.5553207e-39
-0.83771652 -1.6230816 0.77469784 7.6475163e-39
-0.56346351 -1.6242543 0.77589625 5.5291986e-39
-0.555044 -1.6242167 0.7746982 7.9237431e-39
-0.54537284 -1.6242167 0.7746982 7.7389889e-39
-0.53570163 -1.6242167 0.7746982 7.8311831e-39
-0.5252102 -1.6237299 0.7746982 7.8311845e-39
-0.51475018 -1.6242167 0.77469826 7.9237389e-39
-0.50507897 -1.6242166 0.77469826 8.0159345e-39
-0.49540773 -1.6242167 0.77469826 8.0159331e-39
-0.48493534 -1.6247033 0.77469826 8.0155715e-39
-0.47445083 -1.6242166 0.77469826 8.0152114e-39
-0.46477965 -1.6242166 0.77469826 7.9233773e-39
-0.45510849 -1.6242166 0.77469832 7.9237375e-39
-0.44543728 -1.6242166 0.77469832 7.9233787e-39
-0.43496746 -1.6237298 0.77469832 7.9237389e-39
-0.42448577 -1.6242166 0.77469832 7.9237403e-39
-0.41481456 -1.6242164 0.77469832 7.8315446e-39
-0.40514341 -1.6242164 0.77469832 7.8315432e-39
-0.39547226 -1.6242164 0.77469832 7.8311845e-39
-0.38497594 -1.6247032 0.77469838 7.8311831e-39
-0.37451532 -1.6242164 0.77469832 7.9233773e-39
-0.36484417 -1.6242162 0.77469844 7.9233773e-39
-0.35517296 -1.6242164 0.77469844 7.9233773e-39
-0.34472468 -1.6237297 0.77469838 7.9233773e-39
-0.33422145 -1.6242164 0.77469844 7.9230172e-39
-0.3245503 -1.6242164 0.7746985 7.9233773e-39
-0.31487909 -1.6242161 0.7746985 7.9233773e-39
-0.30520794 -1.6242162 0.7746985 7.9233787e-39
-0.29553676 -1.6242161 0.7746985 7.9237403e-39
-0.28586558 -1.6242161 0.7746985 7.9233801e-39
-0.27619436 -1.6242161 0.7746985 7.9233773e-39
-0.26764959 -1.620809 0.7746985 7.9237417e-39
-0.14307551 -1.6225121 0.77469873 7.9233787e-39
-0.13435054 -1.6242156 0.77469873 7.9233815e-39
-0.12467935 -1.6242156 0.77469879 7.9241046e-39
-0.11500818 -1.6242156 0.77469879 7.9237431e-39
-0.10533702 -1.6242156 0.77469879 8.0159359e-39
-0.095665865 -1.6242155 0.77469879 7.9233773e-39
-0.085994691 -1.6242155 0.77469879 7.9233773e-39
-0.077935383 -1.6242154 0.77469885 7.8315418e-39
0.1074286 -1.6242149 0.77469921 7.9241046e-39
0.11387604 -1.6242146 0.77469921 7.9241018e-39
0.12444244 -1.6237279 0.77469921 8.0159359e-39
0.13554682 -1.6247014 0.77469921 7.9237403e-39
0.14611323 -1.6242146 0.77469921 7.8311831e-39
0.15578438 -1.6242146 0.77469927 7.9233773e-39
0.16545556 -1.6242146 0.77469927 7.9233787e-39
0.17512672 -1.6242146 0.77469927 7.9237403e-39
0.18479787 -1.6242146 0.77469927 8.0155758e-39
0.19446902 -1.6242145 0.77469927 8.0155758e-39
0.20343339 -1.623533 0.77469933 8.0159359e-39
0.24604852 -1.6242145 0.77469945 8.0155772e-39
0.25571969 -1.6242143 0.77469945 8.0163002e-39
0.26539084 -1.6242143 0.77469945 8.0159401e-39
0.27506199 -1.6242142 0.77469951 7.9241032e-39
0.28473315 -1.6242142 0.77469951 7.8322691e-39
0.2944043 -1.6242143 0.77469963 7.7400735e-39
0.30407548 -1.6242143 0.77469951 7.6475177e-39
0.31459635 -1.6237276 0.77469963 7.6475191e-39
0.3250269 -1.6242142 0.77469963 7.6482408e-39
0.33469808 -1.6242141 0.77469963 7.740435e-39
0.34513861 -1.6247007 0.77469963 7.6478778e-39
0.35565493 -1.6242141 0.77469969 7.5553207e-39
0.47654426 -1.6242136 0.77469987 7.9241046e-39
0.48460355 -1.6242137 0.77469987 7.9244661e-39
0.49508134 -1.6237268 0.77469987 7.9237431e-39
0.50555497 -1.6242136 0.77469993 7.9237403e-39
0.51522613 -1.6242133 0.77469993 7.9233801e-39
0.52489734 -1.6242136 0.77469993 7.9237431e-39
0.53456849 -1.6242133 0.77469993 8.0159373e-39
0.54505676 -1.6247002 0.77470005 8.0162974e-39
0.55552524 -1.6242132 0.77469999 8.0162974e-39
0.56519645 -1.6242132 0.77470011 8.0159373e-39
0.57486761 -1.6242132 0.77469999 7.9237403e-39
0.5845387 -1.6242133 0.77469999 7.9237417e-39
0.59499258 -1.6237267 0.77470005 7.9241032e-39
0.60549021 -1.6242132 0.77470011 7.9241018e-39
0.61516124 -1.6242132 0.77470011 7.9241046e-39
0.62483245 -1.6242132 0.77470011 7.9244633e-39
0.63450354 -1.6242132 0.77470011 7.9241032e-39
0.64417475 -1.6242132 0.77470016 7.9241032e-39
0.65468919 -1.6246997 0.77470016 8.0163002e-39
0.66513151 -1.6242129 0.77470016 7.9237417e-39
0.67480272 -1.6242129 0.77470016 7.7389889e-39
0.68523496 -1.6237261 0.77470022 7.8311831e-39
0.69575405 -1.6242129 0.77470022 7.8311845e-39
0.70542526 -1.6242129 0.77470022 7.9237389e-39
0.71509641 -1.6242127 0.77470022 8.0159345e-39
0.72476751 -1.6242127 0.77470022 8.0159331e-39
0.73443866 -1.6242127 0.77470022 8.0155715e-39
0.74410981 -1.6242127 0.77470022 8.0152114e-39
0.75464821 -1.6246995 0.77470028 7.9233773e-39
0.76506662 -1.6242126 0.77470034 7.9237375e-39
0.77547729 -1.6237259 0.77470028 7.9233787e-39
0.78601807 -1.6242126 0.7747004 7.9237403e-39
0.79568917 -1.6242127 0.7747004 7.9237403e-39
0.80536032 -1.6242126 0.7747004 7.8315446e-39
0.81503147 -1.6242126 0.7747004 7.8315432e-39
0.8247025 -1.6242126 0.7747004 7.8311845e-39
0.83437371 -1.6242126 0.7747004 7.8311831e-39
0.84404486 -1.6242126 0.77470046 7.9233773e-39
0.85460716 -1.6246992 0.77470052 7.9233773e-39
0.86500168 -1.6242124 0.77470058 7.9233773e-39
0.87538844 -1.6237253 0.77470058 7.9233773e-39
0.88595313 -1.6242123 0.77470058 7.9230172e-39
0.89562422 -1.6242123 0.77470058 7.9233773e-39
0.90529519 -1.6242121 0.77470064 7.9233773e-39
0.91174275 -1.6242121 0.77470064 7.9233787e-39
-0.9130196 -1.6140418 0.77469766 7.7393518e-39
-0.90500057 -1.6140418 0.77469766 7.6475163e-39
-0.89377385 -1.6140417 0.77469772 7.6478778e-39
-0.88415098 -1.6140417 0.77469772 7.6478792e-39
-0.87452817 -1.6140417 0.77469772 7.5556836e-39
-0.8649053 -1.6140417 0.77469778 7.5556822e-39
-0.85528249 -1.6140417 0.77469778 7.6475177e-39
-0.84565955 -1.6140417 0.77469778 7.5553207e-39
-0.83603668 -1.6140417 0.77469778 7.5553193e-39
-0.57153803 -1.6109328 0.77819586 3.5034339e-39
-0.56636465 -1.6155217 0.77598345 5.8979784e-39
-0.55376649 -1.614041 0.77469808 7.8322677e-39
-0.54414362 -1.6140409 0.77469808 7.8315446e-39
-0.53452075 -1.6140409 0.77469808 7.8311831e-39
-0.52489799 -1.614041 0.77469808 7.8311831e-39
-0.51527506 -1.6140409 0.77469808 7.9233773e-39
-0.50565225 -1.6140409 0.77469808 8.0155744e-39
-0.49602941 -1.6140409 0.77469808 8.0159331e-39
-0.48640656 -1.6140409 0.7746982 8.0155715e-39
-0.47517991 -1.6140407 0.7746982 8.015573e-39
-0.46395326 -1.6140407 0.7746982 8.0159345e-39
-0.45433044 -1.6140407 0.7746982 7.8315446e-39
-0.4447076 -1.6140407 0.7746982 7.7393476e-39
-0.43508473 -1.6140407 0.77469826 7.9241018e-39
-0.42546189 -1.6140407 0.77469826 8.0159387e-39
-0.41583905 -1.6140407 0.77469826 8.0155758e-39
-0.40621623 -1.6140407 0.77469826 7.8311845e-39
-0.39498958 -1.6140405 0.77469826 7.7389903e-39
-0.38376293 -1.6140405 0.77469832 7.7389889e-39
-0.37414011 -1.6140405 0.77469826 7.8311831e-39
-0.36451721 -1.6140405 0.77469832 7.9233787e-39
-0.3548944 -1.6140405 0.77469832 8.015573e-39
-0.34527156 -1.6140404 0.77469832 8.015573e-39
-0.33564869 -1.6140404 0.77469844 8.0155744e-39
-0.32602587 -1.6140404 0.77469844 7.9233787e-39
-0.31640303 -1.6140404 0.77469844 7.9233773e-39
-0.30517638 -1.6140404 0.77469838 7.9237375e-39
-0.29394972 -1.6140403 0.77469844 8.0155744e-39
-0.28432691 -1.6140403 0.77469844 8.0155744e-39
-0.27470404 -1.61404 0.7746985 8.0155758e-39
-0.2650812 -1.61404 0.7746985 8.0159359e-39
-0.25866598 -1.6140401 0.7746985 8.0155758e-39
-0.15281476 -1.6140398 0.77469873 7.9237403e-39
-0.14639956 -1.6140399 0.77469873 7.8315432e-39
-0.13517292 -1.6140398 0.77469873 7.9233815e-39
-0.12394627 -1.6140398 0.77469873 7.8319062e-39
-0.11432344 -1.6140398 0.77469873 7.9237417e-39
-0.1047006 -1.6140398 0.77469879 8.0155758e-39
-0.095077775 -1.6140398 0.77469879 7.8311817e-39
-0.085454941 -1.6140395 0.77469879 7.8311803e-39
-0.077435911 -1.6140395 0.77469885 7.8311817e-39
0.10700163 -1.6140391 0.77469915 7.9241032e-39
0.11502065 -1.6140389 0.77469921 7.9237417e-39
0.12624727 -1.6140389 0.77469921 8.0155758e-39
0.13587011 -1.6140389 0.77469921 8.0155758e-39
0.14549293 -1.6140389 0.77469921 7.8311831e-39
0.15511574 -1.6140389 0.77469921 7.9233773e-39
0.16473858 -1.6140388 0.77469927 7.9237403e-39
0.17436141 -1.6140388 0.77469927 8.0155744e-39
0.18398422 -1.6140388 0.77469939 8.0155758e-39
0.19360705 -1.6140388 0.77469939 7.9233787e-39
0.20322986 -1.6140388 0.77469939 7.9233773e-39
0.24492876 -1.6140385 0.77469939 8.0159373e-39
0.25455156 -1.6140385 0.77469939 8.0163002e-39
0.2641744 -1.6140385 0.77469939 8.0162974e-39
0.27379718 -1.6140385 0.77469945 7.9241046e-39
0.28502381 -1.6140383 0.77469945 7.8319076e-39
0.29625043 -1.6140383 0.77469945 7.7393504e-39
0.30587327 -1.6140383 0.77469945 7.6475149e-39
0.31549609 -1.6140383 0.77469945 7.6475163e-39
0.3251189 -1.6140383 0.77469951 7.6478778e-39
0.33474171 -1.6140383 0.77469951 7.6478792e-39
0.34436452 -1.6140381 0.77469951 7.5556836e-39
0.356327 -1.6132987 0.77582729 8.0181149e-39
0.4758763 -1.6140379 0.77469987 7.9237431e-39
0.48549911 -1.6140379 0.77469987 7.9237431e-39
0.49512187 -1.6140376 0.77469987 7.9237403e-39
0.50474471 -1.6140376 0.77469987 7.9237417e-39
0.51436752 -1.6140376 0.77469987 7.9237417e-39
0.52399039 -1.6140375 0.77469993 7.9237431e-39
0.53361315 -1.6140375 0.77469993 8.0162974e-39
0.54483974 -1.6140375 0.77469993 8.0162974e-39
0.55606645 -1.6140375 0.77469993 8.0162988e-39
0.56568921 -1.6140375 0.77469993 8.0162988e-39
0.57531196 -1.6140375 0.77469993 7.9241046e-39
0.58493477 -1.6140375 0.77469999 7.9241046e-39
0.59455758 -1.6140375 0.77469999 7.9241032e-39
0.6041804 -1.6140374 0.77469999 7.9241018e-39
0.61380321 -1.6140374 0.77469999 7.9241032e-39
0.62502986 -1.6140374 0.77470005 7.8322677e-39
0.6362564 -1.6140372 0.77470011 7.9241018e-39
0.64587921 -1.6140372 0.77470011 7.9241046e-39
0.65550202 -1.6140372 0.77470016 8.0166618e-39
0.66512483 -1.6140372 0.77470016 7.8322677e-39
0.67474765 -1.6140372 0.77470016 7.8315446e-39
0.68437052 -1.6140372 0.77470016 7.8311831e-39
0.69399327 -1.614037 0.77470016 7.8311831e-39
0.70361596 -1.614037 0.77470022 7.9233773e-39
0.71484262 -1.614037 0.77470022 8.0159331e-39
0.72606921 -1.614037 0.77470034 8.0155744e-39
0.73569202 -1.6140369 0.77470034 8.0155715e-39
0.74531484 -1.6140369 0.77470034 8.015573e-39
0.75493765 -1.6140369 0.77470034 8.0159345e-39
0.7645604 -1.6140369 0.77470034 7.8315446e-39
0.77418327 -1.6140369 0.77470034 7.7393476e-39
0.78380603 -1.6140369 0.7747004 7.9237431e-39
0.79503262 -1.6140367 0.7747004 8.0159373e-39
0.80625921 -1.6140367 0.7747004 7.9233801e-39
0.81588203 -1.6140367 0.7747004 7.8311845e-39
0.82550478 -1.6140367 0.7747004 7.7389903e-39
0.83512765 -1.6140367 0.77470046 7.7389889e-39
0.8447504 -1.6140366 0.77470046 7.8311831e-39
0.85437316 -1.6140366 0.77470046 7.9233787e-39
0.86399603 -1.6140366 0.77470046 8.015573e-39
0.87361878 -1.6140366 0.77470046 8.015573e-39
0.88484538 -1.6140366 0.77470058 8.0155744e-39
0.89607197 -1.6140364 0.77470058 7.9233787e-39
0.90569478 -1.6140364 0.77470058 7.9233773e-39
0.91210997 -1.6140364 0.77470058 7.9237375e-39
-0.91211301 -1.6028649 0.7746976 7.6478778e-39
-0.9044891 -1.6044552 0.77469772 7.6478792e-39
-0.89400959 -1.6039782 0.77469772 7.6482394e-39
-0.88443452 -1.6039782 0.77469772 7.7400749e-39
-0.87485951 -1.6039783 0.77469772 7.8322719e-39
-0.86528444 -1.6039782 0.77469772 7.8326306e-39
-0.85570931 -1.6039782 0.77469772 7.8322691e-39
-0.84613436 -1.603978 0.77469778 7.7397119e-39
-0.83567369 -1.6035011 0.77469778 7.6471562e-39
-0.82495308 -1.6034993 0.7757355 6.0816423e-39
-0.57513982 -1.6039655 0.77611572 5.8057813e-39
-0.56526625 -1.6039773 0.77469802 8.0162974e-39
-0.55569124 -1.6039773 0.77469802 7.9241018e-39
-0.54529929 -1.6035002 0.77469814 7.8315446e-39
-0.53494787 -1.6039773 0.77469808 7.9233801e-39
-0.52537286 -1.6039773 0.77469808 7.9237375e-39
-0.51501167 -1.6044544 0.7746982 8.0155744e-39
-0.50462431 -1.6039773 0.7746982 8.0159345e-39
-0.49504924 -1.6039773 0.7746982 8.015573e-39
-0.48547426 -1.6039772 0.7746982 8.0152114e-39
-0.47509891 -1.6035001 0.7746982 8.015573e-39
-0.46473098 -1.6039772 0.7746982 8.10777e-39
-0.45515594 -1.6039772 0.77469826 7.9233787e-39
-0.44558084 -1.6039772 0.77469826 7.9233773e-39
-0.43520078 -1.6044543 0.77469826 8.0159359e-39
-0.42483231 -1.6039772 0.77469826 8.0159359e-39
-0.41525722 -1.6039772 0.77469826 7.9237417e-39
-0.40489858 -1.6035001 0.77469826 7.8315446e-39
-0.39451399 -1.6039772 0.77469826 7.7393504e-39
-0.38493896 -1.6039771 0.77469826 7.7393504e-39
-0.37536392 -1.6039772 0.77469826 7.739349e-39
-0.3649672 -1.6044543 0.77469826 7.8315432e-39
-0.35461536 -1.6039771 0.77469826 7.9233787e-39
-0.34504029 -1.6039771 0.77469832 7.9233787e-39
-0.33469826 -1.6035 0.77469832 7.9233787e-39
-0.32429704 -1.6039771 0.77469832 7.9233787e-39
-0.31472197 -1.6039771 0.77469832 7.9237375e-39
-0.30514696 -1.6039771 0.77469832 8.0155744e-39
-0.29557189 -1.6039768 0.77469844 7.9233801e-39
-0.28515634 -1.604454 0.77469838 7.9233801e-39
-0.27482334 -1.6039768 0.77469844 7.8319062e-39
-0.26524833 -1.6039767 0.77469844 7.831546e-39
-0.2549251 -1.6034998 0.77469844 7.8311831e-39
-0.24508351 -1.6023068 0.7746985 7.9233787e-39
-0.23769073 -1.600637 0.7746985 8.0159345e-39
-0.17077653 -1.6006368 0.77469862 8.0159345e-39
-0.16375917 -1.6023067 0.77469862 8.0159373e-39
-0.15513805 -1.6039764 0.77469867 8.0155758e-39
-0.14556302 -1.6039762 0.77469867 8.0155744e-39
-0.13598798 -1.6039762 0.77469867 7.9237403e-39
-0.12553467 -1.6044534 0.77469873 7.9233815e-39
-0.11452454 -1.6034992 0.77469873 7.9237417e-39
-0.10407121 -1.6039762 0.77469873 7.9237403e-39
-0.094496183 -1.6039762 0.77469873 7.8319062e-39
-0.084921159 -1.6039762 0.77469879 7.9233829e-39
-0.07595326 -1.6033083 0.77469879 7.8315418e-39
0.10817522 -1.6039755 0.77469915 7.8319076e-39
0.11615441 -1.6039757 0.77469915 7.8319048e-39
0.12572943 -1.6039754 0.77469915 7.8319048e-39
0.13530447 -1.6039754 0.77469921 7.9237431e-39
0.14487948 -1.6039753 0.77469921 7.739349e-39
0.1544545 -1.6039753 0.77469921 7.8311845e-39
0.16402951 -1.6039753 0.77469921 7.9241032e-39
0.17447904 -1.6034982 0.77469921 7.8319062e-39
0.1854967 -1.6044524 0.77469921 7.9237417e-39
0.19594623 -1.6039753 0.77469927 7.9237389e-39
0.20552127 -1.6039753 0.77469927 8.0155772e-39
0.24467921 -1.6034981 0.77469933 8.0163002e-39
0.25498953 -1.6039752 0.77469945 8.0163002e-39
0.2653074 -1.6044523 0.77469939 8.0162974e-39
0.27573806 -1.6039749 0.77469939 7.9241004e-39
0.28531307 -1.6039749 0.77469939 7.831546e-39
0.29488805 -1.6039749 0.77469945 7.7397119e-39
0.30446312 -1.6039749 0.77469951 7.6478764e-39
0.31487939 -1.6034979 0.77469951 7.6478792e-39
0.32520631 -1.6039749 0.77469945 7.6482394e-39
0.33478132 -1.6039748 0.77469951 7.7400749e-39
0.34511808 -1.6044519 0.77469957 7.8322719e-39
0.35552987 -1.6039747 0.77469951 7.8326306e-39
0.36139789 -1.6016178 0.77597886 8.4794574e-39
0.46968704 -1.6006347 0.77469975 7.8319048e-39
0.47521484 -1.6039743 0.77469975 7.831546e-39
0.48478985 -1.6039743 0.77469975 7.8315446e-39
0.49516207 -1.6044513 0.77469975 7.8311845e-39
0.50553828 -1.6039743 0.77469975 7.831546e-39
0.51511335 -1.6039742 0.77469975 7.9237417e-39
0.52468836 -1.6039742 0.77469987 8.0159373e-39
0.53505248 -1.6034971 0.77469981 8.0159373e-39
0.54543155 -1.6039742 0.77469987 8.0163002e-39
0.55500656 -1.603974 0.77469993 8.1081329e-39
0.56458157 -1.603974 0.77469993 8.0159359e-39
0.57497275 -1.6044512 0.77469987 7.9241032e-39
0.58533007 -1.603974 0.77469993 7.9244633e-39
0.59490508 -1.6039737 0.77469999 7.9244647e-39
0.60525262 -1.6034968 0.77470005 7.9241032e-39
0.61564833 -1.6039739 0.77469999 7.9241018e-39
0.62522328 -1.603974 0.77470011 7.9241032e-39
0.63479829 -1.6039739 0.77470011 7.9237431e-39
0.64437324 -1.6039739 0.77470011 7.9241032e-39
0.65478325 -1.6044508 0.77470011 8.0162974e-39
0.66512173 -1.6039737 0.77470016 7.9237417e-39
0.67545265 -1.6034966 0.77470011 7.8315446e-39
0.68586493 -1.6039737 0.77470016 7.9233787e-39
0.69543999 -1.6039735 0.77470016 8.0155744e-39
0.70501494 -1.6039737 0.77470016 8.0155744e-39
0.71458989 -1.6039735 0.77470016 8.0155758e-39
0.72416496 -1.6039735 0.77470022 8.0155744e-39
0.73459381 -1.6044506 0.77470022 8.0152114e-39
0.7449134 -1.6039734 0.77470022 8.015573e-39
0.75522548 -1.6034963 0.77470022 8.0159345e-39
0.76565653 -1.6039734 0.77470022 7.9233787e-39
0.7752316 -1.6039734 0.77470034 7.9233773e-39
0.78480655 -1.6039734 0.77470034 8.0159359e-39
0.79438162 -1.6039734 0.77470034 8.0159359e-39
0.80395657 -1.6039734 0.77470034 7.9237417e-39
0.81440437 -1.6044505 0.77470028 7.831546e-39
0.82542545 -1.6034963 0.77470046 7.7393504e-39
0.83587331 -1.6039733 0.7747004 7.7393504e-39
0.8454482 -1.6039733 0.77470046 7.739349e-39
0.85502321 -1.6039733 0.77470046 7.8315432e-39
0.86459821 -1.6039733 0.77470046 7.9233787e-39
0.87417322 -1.603973 0.77470046 7.9233787e-39
0.88463753 -1.6044502 0.77470058 7.9233787e-39
0.89562541 -1.603496 0.77470058 7.9233787e-39
0.90608984 -1.6039729 0.77470058 8.015573e-39
0.9124732 -1.6039729 0.77470052 8.0155744e-39
-0.91171062 -1.5940033 0.77469766 7.832632e-39
-0.90377086 -1.5940033 0.7746976 7.8326334e-39
-0.89424324 -1.5940033 0.7746976 7.9248291e-39
-0.88471556 -1.5940032 0.77469772 7.9248305e-39
-0.87518793 -1.5940033 0.7746976 7.9251906e-39
-0.86566025 -1.5940033 0.7746976 8.0170261e-39
-0.85613251 -1.5940032 0.77469772 8.0166632e-39
-0.8450169 -1.5940032 0.77469772 7.9237417e-39
-0.83390135 -1.5940032 0.77469772 7.8315474e-39
-0.82437366 -1.5940032 0.77469772 7.7397133e-39
-0.81455684 -1.5938479 0.77568841 5.1607749e-39
-0.59094197 -1.5900033 0.77688754 1.751717e-39
-0.58459753 -1.5958263 0.77692062 3.778932e-39
-0.57506639 -1.5940027 0.77469796 7.9237417e-39
-0.56395078 -1.5940027 0.77469802 8.0159359e-39
-0.55442315 -1.5940026 0.77469802 7.9237375e-39
-0.54489547 -1.5940026 0.77469802 7.8315432e-39
-0.53536779 -1.5940026 0.77469802 7.9233787e-39
-0.5258401 -1.5940024 0.77469802 8.015573e-39
-0.51631242 -1.5940024 0.77469808 8.015573e-39
-0.50519681 -1.5940025 0.77469808 8.10777e-39
-0.49408126 -1.5940024 0.77469808 8.1074098e-39
-0.48455358 -1.5940024 0.77469808 8.015573e-39
-0.47502592 -1.5940024 0.77469808 8.015573e-39
-0.4654983 -1.5940024 0.77469808 8.1077714e-39
-0.45597062 -1.5940024 0.77469808 7.9237375e-39
-0.44485503 -1.5940024 0.77469814 7.9230172e-39
-0.43373942 -1.5940022 0.7746982 8.0159359e-39
-0.42421174 -1.5940022 0.7746982 8.1077714e-39
-0.41468409 -1.5940022 0.7746982 8.0159345e-39
-0.40515646 -1.5940022 0.7746982 7.924099e-39
-0.39562878 -1.5940022 0.7746982 7.831546e-39
-0.3861011 -1.5940022 0.77469826 7.8315432e-39
-0.37498552 -1.5940022 0.77469826 7.739349e-39
-0.36386991 -1.5940022 0.77469826 7.8311845e-39
-0.35434222 -1.5940022 0.77469826 7.9233801e-39
-0.34481457 -1.5940022 0.77469826 7.9237403e-39
-0.33528695 -1.5940021 0.77469832 8.0155758e-39
-0.32575926 -1.5940021 0.77469832 8.0155758e-39
-0.31623164 -1.5940021 0.77469844 8.0159345e-39
-0.30511603 -1.594002 0.77469838 8.0159373e-39
-0.29400042 -1.5940021 0.77469844 8.0159359e-39
-0.28447273 -1.5940019 0.77469844 7.9237403e-39
-0.27494511 -1.5940019 0.77469844 7.9237403e-39
-0.26541743 -1.5940019 0.77469844 7.9233801e-39
-0.2558898 -1.5940019 0.77469844 7.9230172e-39
-0.24477419 -1.5940018 0.7746985 8.015573e-39
-0.2336586 -1.5940018 0.7746985 8.1081301e-39
-0.22413094 -1.5940018 0.7746985 8.0155744e-39
-0.21619123 -1.5940018 0.7746985 8.0159359e-39
-0.1923721 -1.5940017 0.77469856 8.1081343e-39
-0.18602033 -1.5940014 0.77469856 8.0159359e-39
-0.17490473 -1.5940015 0.77469862 8.0155758e-39
-0.16378914 -1.5940014 0.77469867 8.0162988e-39
-0.15426148 -1.5940014 0.77469856 8.0162974e-39
-0.14473383 -1.5940014 0.77469867 8.0159373e-39
-0.13520619 -1.5940014 0.77469867 7.9237417e-39
-0.12567852 -1.5940014 0.77469873 7.9237403e-39
-0.11615089 -1.5940014 0.77469873 7.9237431e-39
-0.1050353 -1.5940014 0.77469873 7.9241046e-39
-0.093919717 -1.5940014 0.77469873 7.9244675e-39
-0.084392048 -1.5940013 0.77469873 7.9237459e-39
-0.074864402 -1.5940013 0.77469879 7.9237403e-39
0.10616085 -1.5940007 0.77469903 7.8315474e-39
0.11568848 -1.5940005 0.77469915 7.8315446e-39
0.12521613 -1.5940005 0.77469915 7.9233801e-39
0.13474376 -1.5940005 0.77469915 7.9237417e-39
0.1442714 -1.5940005 0.77469915 7.8315446e-39
0.15379904 -1.5940005 0.77469915 7.9233815e-39
0.16491462 -1.5940005 0.77469915 7.9244647e-39
0.1760302 -1.5940005 0.77469921 7.8319062e-39
0.18555784 -1.5940005 0.77469921 7.9241032e-39
0.19508548 -1.5940005 0.77469921 7.9237417e-39
0.20461313 -1.5940005 0.77469921 8.0159359e-39
0.23954777 -1.5940002 0.77469933 8.0166604e-39
0.24589954 -1.5940002 0.77469939 8.0166618e-39
0.25542718 -1.5940002 0.77469939 8.0163016e-39
0.26495481 -1.5940002 0.77469939 8.0159387e-39
0.27448246 -1.5940002 0.77469939 8.0159359e-39
0.28401008 -1.5940002 0.77469939 7.9241032e-39
0.29512566 -1.594 0.77469939 7.8326334e-39
0.30624124 -1.594 0.77469945 7.8326334e-39
0.31576887 -1.594 0.77469945 7.8326334e-39
0.32529649 -1.5939999 0.77469945 7.9248277e-39
0.33482412 -1.5939999 0.77469951 7.9248305e-39
0.34435177 -1.5939999 0.77469951 7.9251906e-39
0.35387936 -1.5939999 0.77469951 8.0170261e-39
0.36375615 -1.5933273 0.77651441 8.664213e-39
0.46603528 -1.5943031 0.77573991 1.0598507e-38
0.47456273 -1.5939995 0.77469969 7.7393504e-39
0.48409033 -1.5939995 0.77469975 7.7389875e-39
0.49520588 -1.5939994 0.77469975 7.7389861e-39
0.50632143 -1.5939994 0.77469987 7.739349e-39
0.51584905 -1.5939994 0.77469987 7.9237431e-39
0.52537674 -1.5939994 0.77469987 8.0155772e-39
0.5349043 -1.5939993 0.77469987 8.0155772e-39
0.54443198 -1.5939993 0.77469987 8.0159387e-39
0.55395955 -1.5939993 0.77469987 8.0162974e-39
0.56507516 -1.5939993 0.77469993 8.0162974e-39
0.57619065 -1.5939993 0.77469993 7.9244633e-39
0.58571833 -1.593999 0.77469993 7.9244647e-39
0.59524596 -1.593999 0.77469993 7.9244647e-39
0.60477358 -1.593999 0.77469999 7.9241046e-39
0.61430115 -1.593999 0.77469999 7.9237417e-39
0.62382883 -1.5939989 0.77469999 7.9241032e-39
0.63494432 -1.5939989 0.77470005 7.9233815e-39
0.64605993 -1.5939989 0.77470011 7.9237431e-39
0.65558761 -1.5939989 0.77469999 8.0159359e-39
0.66511518 -1.5939989 0.77470011 7.9233787e-39
0.6746428 -1.5939988 0.77470011 7.8315432e-39
0.68417042 -1.5939988 0.77470011 7.9233787e-39
0.69369799 -1.5939988 0.77470016 8.015573e-39
0.70481354 -1.5939988 0.77470016 8.015573e-39
0.71592909 -1.5939988 0.77470016 8.10777e-39
0.72545677 -1.5939988 0.77470016 8.1074098e-39
0.7349844 -1.5939986 0.77470022 8.015573e-39
0.74451202 -1.5939986 0.77470022 8.1074084e-39
0.75403959 -1.5939986 0.77470022 8.1077714e-39
0.76515508 -1.5939987 0.77470028 7.9233773e-39
0.77627069 -1.5939986 0.77470034 7.9233759e-39
0.78579825 -1.5939984 0.77470034 8.0159359e-39
0.79532593 -1.5939984 0.77470034 8.1077714e-39
0.8048535 -1.5939984 0.77470034 8.0159345e-39
0.81438112 -1.5939984 0.77470034 7.9237403e-39
0.82390875 -1.5939983 0.7747004 7.831546e-39
0.8350243 -1.5939983 0.7747004 7.7397077e-39
0.84613985 -1.5939983 0.7747004 7.739349e-39
0.85566753 -1.5939983 0.7747004 7.8311845e-39
0.8651951 -1.5939983 0.77470046 7.9233801e-39
0.87472266 -1.5939983 0.77470046 7.9237403e-39
0.88425034 -1.5939983 0.77470046 8.0155758e-39
0.89377791 -1.5939981 0.77470046 8.0155758e-39
0.90489346 -1.5939981 0.77470052 8.0159359e-39
0.91283315 -1.5939981 0.77470052 8.0159373e-39
-0.91185582 -1.5841374 0.7746976 8.0166632e-39
-0.90395516 -1.5841374 0.77469754 8.0166646e-39
-0.89447433 -1.5841374 0.7746976 7.9244675e-39
-0.88499349 -1.5841374 0.7746976 7.9241074e-39
-0.87551278 -1.5841373 0.7746976 7.9248277e-39
-0.86603194 -1.5841373 0.7746976 8.0166646e-39
-0.85497093 -1.5841373 0.77469772 8.0166618e-39
-0.84390998 -1.5841373 0.77469772 8.0163002e-39
-0.8344292 -1.5841374 0.77469772 7.9244633e-39
-0.82494837 -1.5841373 0.77469772 7.9241046e-39
-0.8154676 -1.5841373 0.77469772 7.7397119e-39
-0.80651683 -1.5832086 0.77484828 6.7262887e-39
-0.79989851 -1.580863 0.77469766 7.8315474e-39
-0.60060698 -1.5803374 0.77678782 2.3970864e-39
-0.59459472 -1.5842761 0.77602303 5.4369988e-39
-0.58476806 -1.5841366 0.77469802 7.9233787e-39
-0.57528728 -1.5841366 0.77469796 7.9237403e-39
-0.56499302 -1.5836688 0.77469796 8.0159359e-39
-0.55474812 -1.5841366 0.77469802 7.9237389e-39
-0.54526734 -1.5841366 0.77469808 7.9233787e-39
-0.53501284 -1.5846043 0.77469796 7.9233801e-39
-0.52472299 -1.5841366 0.77469802 8.0155744e-39
-0.51524222 -1.5841366 0.77469802 8.0159359e-39
-0.50496203 -1.5836687 0.77469814 8.0162946e-39
-0.49470305 -1.5841365 0.77469808 8.1077686e-39
-0.48522225 -1.5841365 0.77469808 7.9233759e-39
-0.47495368 -1.5846043 0.77469814 8.015573e-39
-0.46467796 -1.5841365 0.77469808 8.10777e-39
-0.45519722 -1.5841365 0.77469808 7.8315418e-39
-0.44493103 -1.5836687 0.7746982 7.8311817e-39
-0.43465805 -1.5841364 0.7746982 7.9241018e-39
-0.42517722 -1.5841365 0.7746982 7.9244647e-39
-0.41489461 -1.5846041 0.7746982 8.0162946e-39
-0.4046329 -1.5841364 0.7746982 8.0159359e-39
-0.39515212 -1.5841364 0.7746982 7.8319048e-39
-0.38490009 -1.5836685 0.77469826 7.7397091e-39
-0.37461305 -1.5841364 0.7746982 7.8311831e-39
-0.36513221 -1.5841364 0.77469826 7.8311845e-39
-0.35565141 -1.5841361 0.77469826 7.8315446e-39
-0.34535247 -1.584604 0.77469826 7.9237417e-39
-0.33510712 -1.5841361 0.77469826 8.0159345e-39
-0.3248691 -1.5836685 0.77469826 8.0159345e-39
-0.31456798 -1.5841361 0.77469832 8.0159373e-39
-0.30508712 -1.5841361 0.77469832 8.0159373e-39
-0.29560637 -1.584136 0.77469832 8.0159387e-39
-0.2852934 -1.5846035 0.77469838 7.9237403e-39
-0.27506205 -1.584136 0.77469844 7.8315446e-39
-0.26483816 -1.5836681 0.77469838 7.9233787e-39
-0.25452295 -1.5841359 0.77469844 8.015573e-39
-0.24504215 -1.5841359 0.77469844 8.1081315e-39
-0.23556136 -1.5841357 0.77469844 8.2003271e-39
-0.22523428 -1.5846034 0.77469844 8.0159359e-39
-0.21501707 -1.5841357 0.7746985 8.016296e-39
-0.20480721 -1.583668 0.77469844 8.0162988e-39
-0.19447793 -1.5841357 0.77469856 8.0159387e-39
-0.18499714 -1.5841357 0.77469856 7.9233787e-39
-0.17551637 -1.5841357 0.77469856 8.0155758e-39
-0.16517521 -1.5846034 0.77469862 8.0159345e-39
-0.15497206 -1.5841355 0.77469856 8.10777e-39
-0.1447763 -1.5836678 0.77469867 8.0162988e-39
-0.13443293 -1.5841355 0.77469867 8.0159359e-39
-0.12495214 -1.5841355 0.77469867 7.8315446e-39
-0.11547136 -1.5841354 0.77469867 7.831546e-39
-0.10599058 -1.5841354 0.77469867 7.831546e-39
-0.094929658 -1.5841353 0.77469873 7.8315474e-39
-0.083868749 -1.5841354 0.77469873 7.8311845e-39
